ply
    format ascii 1.0
    element vertex 74514
    property float x
    property float y
    property float z
    property uchar red
    property uchar green
    property uchar blue
    end_header
0.011719 0.230469 -0.093693 73 31 49
0.015625 0.230469 -0.092532 73 31 49
0.019531 0.230469 -0.091357 74 32 50
0.023438 0.230469 -0.090193 73 32 50
0.027344 0.230469 -0.088845 73 32 50
0.031250 0.230469 -0.087403 73 32 50
0.035156 0.230469 -0.085734 73 32 50
0.039062 0.230469 -0.083901 72 31 49
0.042969 0.230469 -0.082070 72 31 49
0.046875 0.230469 -0.080229 71 30 48
0.050781 0.230469 -0.078873 71 30 48
0.054688 0.230469 -0.077517 71 30 48
0.058594 0.230469 -0.076326 71 29 49
0.062500 0.230469 -0.075031 70 28 48
0.066406 0.230469 -0.073314 70 28 48
0.070312 0.230469 -0.071229 70 28 48
0.074219 0.230469 -0.069027 70 28 48
0.078125 0.230469 -0.066467 71 29 49
0.082031 0.230469 -0.063308 72 30 50
0.085938 0.230469 -0.059202 73 31 51
0.089844 0.230469 -0.054593 76 34 54
0.093750 0.230469 -0.049218 72 30 50
0.097656 0.230469 -0.043434 79 37 57
0.101562 0.230469 -0.032105 72 32 51
-0.226562 0.226562 -0.008059 81 36 56
-0.222656 0.226562 -0.018936 86 46 63
-0.218750 0.226562 -0.026526 70 44 56
-0.214844 0.226562 -0.034358 22 10 13
-0.210938 0.226562 -0.041439 24 13 16
-0.207031 0.226562 -0.047174 29 14 17
-0.203125 0.226562 -0.051993 38 18 21
-0.199219 0.226562 -0.055910 52 24 25
-0.195312 0.226562 -0.059453 97 63 63
-0.191406 0.226562 -0.062559 150 105 120
-0.187500 0.226562 -0.065716 92 51 69
-0.183594 0.226562 -0.068611 76 33 52
-0.179688 0.226562 -0.071332 67 22 42
-0.175781 0.226562 -0.073926 82 37 57
-0.171875 0.226562 -0.076412 86 39 59
-0.167969 0.226562 -0.078731 89 40 61
-0.164062 0.226562 -0.080740 81 32 53
-0.160156 0.226562 -0.082693 79 30 51
-0.156250 0.226562 -0.084470 79 30 51
-0.152344 0.226562 -0.086130 78 31 51
-0.148438 0.226562 -0.087457 76 30 50
-0.144531 0.226562 -0.088816 76 30 50
-0.140625 0.226562 -0.090031 74 30 49
-0.136719 0.226562 -0.090957 73 31 49
-0.132812 0.226562 -0.091824 73 31 49
-0.128906 0.226562 -0.092531 73 29 48
-0.125000 0.226562 -0.093276 73 29 48
-0.121094 0.226562 -0.094168 73 29 48
-0.117188 0.226562 -0.095121 73 29 48
-0.113281 0.226562 -0.096003 73 29 48
-0.109375 0.226562 -0.096923 73 29 48
-0.105469 0.226562 -0.097623 73 29 48
-0.101562 0.226562 -0.098354 73 29 48
-0.097656 0.226562 -0.098996 74 30 49
-0.093750 0.226562 -0.099495 74 30 49
-0.089844 0.226562 -0.099991 74 30 49
-0.085938 0.226562 -0.100452 74 30 49
-0.082031 0.226562 -0.100934 74 30 49
-0.078125 0.226562 -0.101277 74 30 49
-0.074219 0.226562 -0.101487 74 30 49
-0.070312 0.226562 -0.101704 74 30 49
-0.066406 0.226562 -0.101787 71 27 46
-0.062500 0.226562 -0.101937 71 27 46
-0.058594 0.226562 -0.101905 71 27 46
-0.054688 0.226562 -0.101866 71 27 46
-0.050781 0.226562 -0.101966 71 27 46
-0.046875 0.226562 -0.101846 71 27 46
-0.042969 0.226562 -0.101794 71 27 46
-0.039062 0.226562 -0.101673 71 27 46
-0.035156 0.226562 -0.101560 71 27 46
-0.031250 0.226562 -0.101355 72 28 47
-0.027344 0.226562 -0.101068 72 28 47
-0.023438 0.226562 -0.100664 73 29 48
-0.019531 0.226562 -0.100314 73 29 48
-0.015625 0.226562 -0.099841 72 28 47
-0.011719 0.226562 -0.099167 72 28 47
-0.007812 0.226562 -0.098589 71 27 46
-0.003906 0.226562 -0.097847 71 29 47
0.000000 0.226562 -0.097014 72 30 48
0.003906 0.226562 -0.096187 72 30 48
0.007812 0.226562 -0.095206 72 30 48
0.011719 0.226562 -0.094038 73 31 49
0.015625 0.226562 -0.092936 73 31 49
0.019531 0.226562 -0.091647 73 31 49
0.023438 0.226562 -0.090415 72 31 49
0.027344 0.226562 -0.089004 73 32 50
0.031250 0.226562 -0.087731 73 32 50
0.035156 0.226562 -0.086021 73 32 50
0.039062 0.226562 -0.084067 72 31 49
0.042969 0.226562 -0.082260 72 31 49
0.046875 0.226562 -0.080456 71 30 48
0.050781 0.226562 -0.079048 71 30 48
0.054688 0.226562 -0.077710 71 30 48
0.058594 0.226562 -0.076567 71 29 49
0.062500 0.226562 -0.075269 70 28 48
0.066406 0.226562 -0.073628 70 28 48
0.070312 0.226562 -0.071390 70 28 48
0.074219 0.226562 -0.069145 70 28 48
0.078125 0.226562 -0.066573 71 29 49
0.082031 0.226562 -0.063329 72 30 50
0.085938 0.226562 -0.059035 73 31 51
0.089844 0.226562 -0.054367 72 30 50
0.093750 0.226562 -0.049052 71 29 49
0.097656 0.226562 -0.043161 76 34 54
0.101562 0.226562 -0.032743 78 38 57
-0.226562 0.222656 -0.009721 81 36 56
-0.222656 0.222656 -0.019935 86 46 63
-0.218750 0.222656 -0.027430 71 45 57
-0.214844 0.222656 -0.035040 22 9 13
-0.210938 0.222656 -0.042053 24 14 16
-0.207031 0.222656 -0.047969 29 15 18
-0.203125 0.222656 -0.052837 38 20 22
-0.199219 0.222656 -0.056748 52 28 28
-0.195312 0.222656 -0.060412 107 79 77
-0.191406 0.222656 -0.063573 91 48 65
-0.187500 0.222656 -0.066729 67 25 43
-0.183594 0.222656 -0.069558 88 45 64
-0.179688 0.222656 -0.072307 83 38 58
-0.175781 0.222656 -0.074985 84 39 59
-0.171875 0.222656 -0.077422 73 26 46
-0.167969 0.222656 -0.079652 80 31 52
-0.164062 0.222656 -0.081521 87 38 59
-0.160156 0.222656 -0.083396 79 30 51
-0.156250 0.222656 -0.085143 79 30 51
-0.152344 0.222656 -0.086567 78 31 51
-0.148438 0.222656 -0.087879 76 30 50
-0.144531 0.222656 -0.088962 76 30 50
-0.140625 0.222656 -0.090144 74 30 49
-0.136719 0.222656 -0.091054 73 31 49
-0.132812 0.222656 -0.091755 73 31 49
-0.128906 0.222656 -0.092503 73 29 48
-0.125000 0.222656 -0.093262 73 29 48
-0.121094 0.222656 -0.094107 73 29 48
-0.117188 0.222656 -0.095040 73 29 48
-0.113281 0.222656 -0.095925 73 29 48
-0.109375 0.222656 -0.096663 73 29 48
-0.105469 0.222656 -0.097566 73 29 48
-0.101562 0.222656 -0.098195 73 29 48
-0.097656 0.222656 -0.098740 74 30 49
-0.093750 0.222656 -0.099407 74 30 49
-0.089844 0.222656 -0.099957 74 30 49
-0.085938 0.222656 -0.100459 74 30 49
-0.082031 0.222656 -0.100876 74 30 49
-0.078125 0.222656 -0.101312 74 30 49
-0.074219 0.222656 -0.101599 74 30 49
-0.070312 0.222656 -0.101836 74 30 49
-0.066406 0.222656 -0.101969 71 27 46
-0.062500 0.222656 -0.102090 71 27 46
-0.058594 0.222656 -0.102212 71 27 46
-0.054688 0.222656 -0.102280 71 27 46
-0.050781 0.222656 -0.102214 71 27 46
-0.046875 0.222656 -0.102108 71 27 46
-0.042969 0.222656 -0.102187 71 27 46
-0.039062 0.222656 -0.102092 71 27 46
-0.035156 0.222656 -0.101959 72 28 47
-0.031250 0.222656 -0.101760 72 28 47
-0.027344 0.222656 -0.101553 73 29 48
-0.023438 0.222656 -0.101198 73 29 48
-0.019531 0.222656 -0.100758 73 29 48
-0.015625 0.222656 -0.100360 73 29 48
-0.011719 0.222656 -0.099801 72 28 47
-0.007812 0.222656 -0.099120 72 28 47
-0.003906 0.222656 -0.098517 71 29 47
0.000000 0.222656 -0.097750 71 29 47
0.003906 0.222656 -0.096880 72 30 48
0.007812 0.222656 -0.095940 72 30 48
0.011719 0.222656 -0.094849 72 30 48
0.015625 0.222656 -0.093677 73 31 49
0.019531 0.222656 -0.092359 72 31 49
0.023438 0.222656 -0.091014 72 31 49
0.027344 0.222656 -0.089673 73 32 50
0.031250 0.222656 -0.088339 73 32 50
0.035156 0.222656 -0.086576 73 32 50
0.039062 0.222656 -0.084607 72 31 49
0.042969 0.222656 -0.082807 72 31 49
0.046875 0.222656 -0.080907 71 30 48
0.050781 0.222656 -0.079473 71 30 48
0.054688 0.222656 -0.078220 71 30 48
0.058594 0.222656 -0.077017 71 29 49
0.062500 0.222656 -0.075747 70 28 48
0.066406 0.222656 -0.074005 70 28 48
0.070312 0.222656 -0.071827 70 28 48
0.074219 0.222656 -0.069448 70 28 48
0.078125 0.222656 -0.066857 71 29 49
0.082031 0.222656 -0.063475 72 30 50
0.085938 0.222656 -0.059139 73 31 51
0.089844 0.222656 -0.054450 68 26 46
0.093750 0.222656 -0.049036 76 34 54
0.097656 0.222656 -0.043339 73 31 51
0.101562 0.222656 -0.033608 77 36 56
-0.226562 0.218750 -0.011712 81 36 56
-0.222656 0.218750 -0.021405 84 44 62
-0.218750 0.218750 -0.028595 72 46 58
-0.214844 0.218750 -0.035967 23 9 13
-0.210938 0.218750 -0.042900 24 14 17
-0.207031 0.218750 -0.048599 28 15 18
-0.203125 0.218750 -0.053550 36 21 22
-0.199219 0.218750 -0.057579 50 30 29
-0.195312 0.218750 -0.061180 111 89 86
-0.191406 0.218750 -0.064439 119 77 94
-0.187500 0.218750 -0.067631 79 38 56
-0.183594 0.218750 -0.070558 80 37 56
-0.179688 0.218750 -0.073152 72 27 47
-0.175781 0.218750 -0.075808 85 40 60
-0.171875 0.218750 -0.078279 83 36 56
-0.167969 0.218750 -0.080431 84 35 56
-0.164062 0.218750 -0.082255 82 33 54
-0.160156 0.218750 -0.084059 79 30 51
-0.156250 0.218750 -0.085649 79 30 51
-0.152344 0.218750 -0.087007 78 31 51
-0.148438 0.218750 -0.088176 75 30 50
-0.144531 0.218750 -0.089340 76 30 50
-0.140625 0.218750 -0.090344 74 30 49
-0.136719 0.218750 -0.091333 73 31 49
-0.132812 0.218750 -0.092003 73 31 49
-0.128906 0.218750 -0.092685 73 29 48
-0.125000 0.218750 -0.093381 73 29 48
-0.121094 0.218750 -0.094051 73 29 48
-0.117188 0.218750 -0.095029 73 29 48
-0.113281 0.218750 -0.095920 73 29 48
-0.109375 0.218750 -0.096724 73 29 48
-0.105469 0.218750 -0.097445 73 29 48
-0.101562 0.218750 -0.098172 73 29 48
-0.097656 0.218750 -0.098863 74 30 49
-0.093750 0.218750 -0.099401 74 30 49
-0.089844 0.218750 -0.100028 74 30 49
-0.085938 0.218750 -0.100607 74 30 49
-0.082031 0.218750 -0.101129 74 30 49
-0.078125 0.218750 -0.101487 74 30 49
-0.074219 0.218750 -0.101852 74 30 49
-0.070312 0.218750 -0.102000 74 30 49
-0.066406 0.218750 -0.102281 71 27 46
-0.062500 0.218750 -0.102426 71 27 46
-0.058594 0.218750 -0.102558 71 27 46
-0.054688 0.218750 -0.102572 71 27 46
-0.050781 0.218750 -0.102577 71 27 46
-0.046875 0.218750 -0.102654 71 27 46
-0.042969 0.218750 -0.102600 71 27 46
-0.039062 0.218750 -0.102635 71 27 46
-0.035156 0.218750 -0.102514 72 28 47
-0.031250 0.218750 -0.102363 73 29 48
-0.027344 0.218750 -0.102075 72 29 48
-0.023438 0.218750 -0.101867 73 30 49
-0.019531 0.218750 -0.101475 74 30 49
-0.015625 0.218750 -0.101042 73 29 48
-0.011719 0.218750 -0.100613 73 29 48
-0.007812 0.218750 -0.100017 72 28 47
-0.003906 0.218750 -0.099400 71 29 47
0.000000 0.218750 -0.098546 71 29 47
0.003906 0.218750 -0.097835 71 29 47
0.007812 0.218750 -0.096817 72 30 48
0.011719 0.218750 -0.095733 72 30 48
0.015625 0.218750 -0.094567 72 31 49
0.019531 0.218750 -0.093295 72 31 49
0.023438 0.218750 -0.091934 72 31 49
0.027344 0.218750 -0.090484 73 32 50
0.031250 0.218750 -0.089109 73 32 50
0.035156 0.218750 -0.087347 73 32 50
0.039062 0.218750 -0.085328 72 31 49
0.042969 0.218750 -0.083595 72 31 49
0.046875 0.218750 -0.081674 71 30 48
0.050781 0.218750 -0.080244 71 30 48
0.054688 0.218750 -0.078912 71 30 48
0.058594 0.218750 -0.077686 71 29 49
0.062500 0.218750 -0.076436 70 28 48
0.066406 0.218750 -0.074661 70 28 48
0.070312 0.218750 -0.072270 70 28 48
0.074219 0.218750 -0.069880 70 28 48
0.078125 0.218750 -0.067132 71 29 49
0.082031 0.218750 -0.063687 72 30 50
0.085938 0.218750 -0.059197 73 31 51
0.089844 0.218750 -0.054389 69 27 47
0.093750 0.218750 -0.049012 83 41 61
0.097656 0.218750 -0.042964 70 28 48
0.101562 0.218750 -0.034503 69 27 47
-0.226562 0.214844 -0.013972 76 31 51
-0.222656 0.214844 -0.022800 86 45 63
-0.218750 0.214844 -0.029768 70 42 55
-0.214844 0.214844 -0.036922 25 11 15
-0.210938 0.214844 -0.043657 25 15 17
-0.207031 0.214844 -0.049507 28 16 18
-0.203125 0.214844 -0.054352 36 22 23
-0.199219 0.214844 -0.058341 49 31 29
-0.195312 0.214844 -0.061928 114 94 91
-0.191406 0.214844 -0.065216 117 75 92
-0.187500 0.214844 -0.068378 79 38 56
-0.183594 0.214844 -0.071264 76 33 52
-0.179688 0.214844 -0.074024 83 38 58
-0.175781 0.214844 -0.076566 83 38 58
-0.171875 0.214844 -0.079061 84 37 57
-0.167969 0.214844 -0.081229 76 27 48
-0.164062 0.214844 -0.082980 83 34 55
-0.160156 0.214844 -0.084687 80 31 52
-0.156250 0.214844 -0.086210 80 31 52
-0.152344 0.214844 -0.087484 78 31 51
-0.148438 0.214844 -0.088601 75 30 50
-0.144531 0.214844 -0.089708 76 30 50
-0.140625 0.214844 -0.090761 74 30 49
-0.136719 0.214844 -0.091554 72 30 48
-0.132812 0.214844 -0.092259 72 30 48
-0.128906 0.214844 -0.092879 73 29 48
-0.125000 0.214844 -0.093475 73 29 48
-0.121094 0.214844 -0.094326 73 29 48
-0.117188 0.214844 -0.095204 73 29 48
-0.113281 0.214844 -0.096018 73 29 48
-0.109375 0.214844 -0.096767 73 29 48
-0.105469 0.214844 -0.097657 73 29 48
-0.101562 0.214844 -0.098265 73 29 48
-0.097656 0.214844 -0.098996 74 30 49
-0.093750 0.214844 -0.099629 74 30 49
-0.089844 0.214844 -0.100208 74 30 49
-0.085938 0.214844 -0.100752 73 29 48
-0.082031 0.214844 -0.101320 73 29 48
-0.078125 0.214844 -0.101788 72 28 47
-0.074219 0.214844 -0.102130 72 28 47
-0.070312 0.214844 -0.102438 72 28 47
-0.066406 0.214844 -0.102695 71 27 46
-0.062500 0.214844 -0.102846 71 27 46
-0.058594 0.214844 -0.102937 71 27 46
-0.054688 0.214844 -0.103126 71 27 46
-0.050781 0.214844 -0.103104 71 27 46
-0.046875 0.214844 -0.103169 71 27 46
-0.042969 0.214844 -0.103182 71 27 46
-0.039062 0.214844 -0.103124 71 27 46
-0.035156 0.214844 -0.103136 73 29 48
-0.031250 0.214844 -0.103029 72 29 48
-0.027344 0.214844 -0.102881 72 29 48
-0.023438 0.214844 -0.102668 72 29 48
-0.019531 0.214844 -0.102372 72 29 48
-0.015625 0.214844 -0.101946 72 29 48
-0.011719 0.214844 -0.101544 72 29 48
-0.007812 0.214844 -0.101021 72 29 48
-0.003906 0.214844 -0.100346 71 29 47
0.000000 0.214844 -0.099789 71 29 47
0.003906 0.214844 -0.098947 71 29 47
0.007812 0.214844 -0.097992 72 30 48
0.011719 0.214844 -0.096918 71 30 48
0.015625 0.214844 -0.095735 72 31 49
0.019531 0.214844 -0.094407 72 31 49
0.023438 0.214844 -0.093162 72 31 49
0.027344 0.214844 -0.091612 73 32 50
0.031250 0.214844 -0.090218 73 32 50
0.035156 0.214844 -0.088360 73 32 50
0.039062 0.214844 -0.086474 72 31 49
0.042969 0.214844 -0.084607 72 31 49
0.046875 0.214844 -0.082657 71 30 48
0.050781 0.214844 -0.081181 71 30 48
0.054688 0.214844 -0.079894 71 30 48
0.058594 0.214844 -0.078597 67 25 45
0.062500 0.214844 -0.077300 67 25 45
0.066406 0.214844 -0.075336 67 25 45
0.070312 0.214844 -0.072983 68 26 46
0.074219 0.214844 -0.070475 69 27 47
0.078125 0.214844 -0.067445 70 28 48
0.082031 0.214844 -0.063967 71 29 49
0.085938 0.214844 -0.059394 72 30 50
0.089844 0.214844 -0.054554 73 31 51
0.093750 0.214844 -0.048901 74 32 52
0.097656 0.214844 -0.043005 74 32 52
0.101562 0.214844 -0.036916 74 32 52
0.105469 0.214844 -0.016973 74 32 53
-0.226562 0.210938 -0.016653 76 31 51
-0.222656 0.210938 -0.024479 83 42 60
-0.218750 0.210938 -0.031267 70 43 55
-0.214844 0.210938 -0.037996 25 12 16
-0.210938 0.210938 -0.044544 24 15 18
-0.207031 0.210938 -0.050129 27 17 18
-0.203125 0.210938 -0.054976 33 22 22
-0.199219 0.210938 -0.059004 44 31 28
-0.195312 0.210938 -0.062611 108 92 87
-0.191406 0.210938 -0.065853 109 68 84
-0.187500 0.210938 -0.069140 73 32 50
-0.183594 0.210938 -0.072035 72 29 48
-0.179688 0.210938 -0.074777 79 34 54
-0.175781 0.210938 -0.077491 81 36 56
-0.171875 0.210938 -0.079860 84 37 57
-0.167969 0.210938 -0.082049 77 28 49
-0.164062 0.210938 -0.083783 85 36 57
-0.160156 0.210938 -0.085422 80 31 52
-0.156250 0.210938 -0.086785 80 31 52
-0.152344 0.210938 -0.088122 78 31 51
-0.148438 0.210938 -0.089099 75 30 50
-0.144531 0.210938 -0.090221 76 30 50
-0.140625 0.210938 -0.091313 74 30 49
-0.136719 0.210938 -0.092061 72 30 48
-0.132812 0.210938 -0.092697 72 30 48
-0.128906 0.210938 -0.093286 73 29 48
-0.125000 0.210938 -0.093811 73 29 48
-0.121094 0.210938 -0.094565 73 29 48
-0.117188 0.210938 -0.095505 73 29 48
-0.113281 0.210938 -0.096279 73 29 48
-0.109375 0.210938 -0.097055 73 29 48
-0.105469 0.210938 -0.097783 73 29 48
-0.101562 0.210938 -0.098539 73 29 48
-0.097656 0.210938 -0.099106 74 30 49
-0.093750 0.210938 -0.099800 74 30 49
-0.089844 0.210938 -0.100529 74 30 49
-0.085938 0.210938 -0.101020 73 29 48
-0.082031 0.210938 -0.101658 73 29 48
-0.078125 0.210938 -0.102113 72 28 47
-0.074219 0.210938 -0.102425 72 28 47
-0.070312 0.210938 -0.102866 72 28 47
-0.066406 0.210938 -0.103005 71 27 46
-0.062500 0.210938 -0.103335 71 27 46
-0.058594 0.210938 -0.103486 71 27 46
-0.054688 0.210938 -0.103603 71 27 46
-0.050781 0.210938 -0.103725 71 27 46
-0.046875 0.210938 -0.103790 71 27 46
-0.042969 0.210938 -0.103853 71 27 46
-0.039062 0.210938 -0.103948 70 27 46
-0.035156 0.210938 -0.103975 72 29 48
-0.031250 0.210938 -0.103857 72 29 48
-0.027344 0.210938 -0.103722 72 29 48
-0.023438 0.210938 -0.103597 72 29 48
-0.019531 0.210938 -0.103398 72 29 48
-0.015625 0.210938 -0.102981 72 29 48
-0.011719 0.210938 -0.102598 72 29 48
-0.007812 0.210938 -0.102177 72 29 48
-0.003906 0.210938 -0.101636 70 29 47
0.000000 0.210938 -0.100954 70 29 47
0.003906 0.210938 -0.100155 70 29 47
0.007812 0.210938 -0.099337 71 30 48
0.011719 0.210938 -0.098237 71 30 48
0.015625 0.210938 -0.097063 72 31 49
0.019531 0.210938 -0.095736 72 31 49
0.023438 0.210938 -0.094387 72 31 49
0.027344 0.210938 -0.092864 73 32 50
0.031250 0.210938 -0.091561 73 32 50
0.035156 0.210938 -0.089705 72 31 49
0.039062 0.210938 -0.087764 72 31 49
0.042969 0.210938 -0.085873 72 31 49
0.046875 0.210938 -0.083932 71 30 48
0.050781 0.210938 -0.082435 71 30 48
0.054688 0.210938 -0.081007 71 30 48
0.058594 0.210938 -0.079651 68 26 46
0.062500 0.210938 -0.078196 67 25 45
0.066406 0.210938 -0.076273 67 25 45
0.070312 0.210938 -0.073774 68 26 46
0.074219 0.210938 -0.071056 69 27 47
0.078125 0.210938 -0.068152 70 28 48
0.082031 0.210938 -0.064323 71 29 49
0.085938 0.210938 -0.059735 72 30 50
0.089844 0.210938 -0.054824 73 31 51
0.093750 0.210938 -0.049342 74 32 52
0.097656 0.210938 -0.043591 74 32 52
0.101562 0.210938 -0.037833 74 32 52
0.105469 0.210938 -0.027406 75 33 53
-0.226562 0.207031 -0.019334 76 31 51
-0.222656 0.207031 -0.026301 80 40 57
-0.218750 0.207031 -0.032851 71 43 56
-0.214844 0.207031 -0.039358 25 13 16
-0.210938 0.207031 -0.045540 24 16 18
-0.207031 0.207031 -0.050885 26 17 18
-0.203125 0.207031 -0.055694 31 22 22
-0.199219 0.207031 -0.059610 40 29 26
-0.195312 0.207031 -0.063236 102 89 84
-0.191406 0.207031 -0.066567 106 65 82
-0.187500 0.207031 -0.069809 73 32 50
-0.183594 0.207031 -0.072818 73 30 49
-0.179688 0.207031 -0.075598 79 34 54
-0.175781 0.207031 -0.078289 80 35 55
-0.171875 0.207031 -0.080749 84 37 57
-0.167969 0.207031 -0.082841 78 29 50
-0.164062 0.207031 -0.084597 84 35 56
-0.160156 0.207031 -0.086132 80 31 52
-0.156250 0.207031 -0.087624 80 31 52
-0.152344 0.207031 -0.088821 78 31 51
-0.148438 0.207031 -0.089871 75 30 50
-0.144531 0.207031 -0.090899 75 30 50
-0.140625 0.207031 -0.091864 74 30 49
-0.136719 0.207031 -0.092633 72 30 48
-0.132812 0.207031 -0.093232 72 30 48
-0.128906 0.207031 -0.093823 73 29 48
-0.125000 0.207031 -0.094281 73 29 48
-0.121094 0.207031 -0.095057 73 29 48
-0.117188 0.207031 -0.095841 73 29 48
-0.113281 0.207031 -0.096673 73 29 48
-0.109375 0.207031 -0.097318 73 29 48
-0.105469 0.207031 -0.098097 73 29 48
-0.101562 0.207031 -0.098788 73 29 48
-0.097656 0.207031 -0.099520 74 30 49
-0.093750 0.207031 -0.100114 74 30 49
-0.089844 0.207031 -0.100766 74 30 49
-0.085938 0.207031 -0.101392 73 29 48
-0.082031 0.207031 -0.102032 73 29 48
-0.078125 0.207031 -0.102513 72 28 47
-0.074219 0.207031 -0.102989 72 28 47
-0.070312 0.207031 -0.103190 72 28 47
-0.066406 0.207031 -0.103593 71 27 46
-0.062500 0.207031 -0.103867 71 27 46
-0.058594 0.207031 -0.104111 71 27 46
-0.054688 0.207031 -0.104231 71 27 46
-0.050781 0.207031 -0.104398 71 27 46
-0.046875 0.207031 -0.104518 71 27 46
-0.042969 0.207031 -0.104667 70 27 46
-0.039062 0.207031 -0.104812 70 27 46
-0.035156 0.207031 -0.104819 72 29 48
-0.031250 0.207031 -0.104808 72 29 48
-0.027344 0.207031 -0.104875 72 29 48
-0.023438 0.207031 -0.104656 72 29 48
-0.019531 0.207031 -0.104454 72 29 48
-0.015625 0.207031 -0.104350 72 29 48
-0.011719 0.207031 -0.103933 72 29 48
-0.007812 0.207031 -0.103522 72 29 48
-0.003906 0.207031 -0.103009 70 29 47
0.000000 0.207031 -0.102372 70 29 47
0.003906 0.207031 -0.101757 70 29 47
0.007812 0.207031 -0.100826 70 29 47
0.011719 0.207031 -0.099768 71 30 48
0.015625 0.207031 -0.098671 71 30 48
0.019531 0.207031 -0.097367 71 30 48
0.023438 0.207031 -0.096002 71 30 48
0.027344 0.207031 -0.094451 73 32 50
0.031250 0.207031 -0.093029 72 31 49
0.035156 0.207031 -0.091257 72 31 49
0.039062 0.207031 -0.089172 72 31 49
0.042969 0.207031 -0.087454 71 30 48
0.046875 0.207031 -0.085421 71 30 48
0.050781 0.207031 -0.083883 71 30 48
0.054688 0.207031 -0.082311 71 30 48
0.058594 0.207031 -0.080934 68 26 46
0.062500 0.207031 -0.079391 68 26 46
0.066406 0.207031 -0.077315 68 26 46
0.070312 0.207031 -0.074662 68 26 46
0.074219 0.207031 -0.071866 69 27 47
0.078125 0.207031 -0.068745 70 28 48
0.082031 0.207031 -0.064888 71 29 49
0.085938 0.207031 -0.060148 72 30 50
0.089844 0.207031 -0.055291 72 30 50
0.093750 0.207031 -0.049563 73 31 51
0.097656 0.207031 -0.044568 74 32 52
0.101562 0.207031 -0.038157 74 32 52
0.105469 0.207031 -0.031086 74 32 53
-0.230469 0.203125 -0.010531 77 28 49
-0.226562 0.203125 -0.021177 76 31 51
-0.222656 0.203125 -0.028287 77 37 54
-0.218750 0.203125 -0.034671 71 44 56
-0.214844 0.203125 -0.040664 24 14 17
-0.210938 0.203125 -0.046543 23 16 18
-0.207031 0.203125 -0.051691 26 17 18
-0.203125 0.203125 -0.056430 29 21 21
-0.199219 0.203125 -0.060349 36 28 24
-0.195312 0.203125 -0.063904 96 85 80
-0.191406 0.203125 -0.067258 107 67 83
-0.187500 0.203125 -0.070518 77 36 54
-0.183594 0.203125 -0.073508 78 35 54
-0.179688 0.203125 -0.076463 81 36 56
-0.175781 0.203125 -0.079104 80 35 55
-0.171875 0.203125 -0.081647 84 37 57
-0.167969 0.203125 -0.083785 77 28 49
-0.164062 0.203125 -0.085485 82 33 54
-0.160156 0.203125 -0.087029 80 31 52
-0.156250 0.203125 -0.088441 80 31 52
-0.152344 0.203125 -0.089667 78 31 51
-0.148438 0.203125 -0.090618 75 30 50
-0.144531 0.203125 -0.091642 75 30 50
-0.140625 0.203125 -0.092584 73 30 49
-0.136719 0.203125 -0.093334 72 30 48
-0.132812 0.203125 -0.093854 72 30 48
-0.128906 0.203125 -0.094331 73 29 48
-0.125000 0.203125 -0.094756 73 29 48
-0.121094 0.203125 -0.095423 73 29 48
-0.117188 0.203125 -0.096297 73 29 48
-0.113281 0.203125 -0.097073 73 29 48
-0.109375 0.203125 -0.097685 73 29 48
-0.105469 0.203125 -0.098477 73 29 48
-0.101562 0.203125 -0.099152 73 29 48
-0.097656 0.203125 -0.099825 74 30 49
-0.093750 0.203125 -0.100546 74 30 49
-0.089844 0.203125 -0.101115 74 30 49
-0.085938 0.203125 -0.101851 73 29 48
-0.082031 0.203125 -0.102454 73 29 48
-0.078125 0.203125 -0.102941 72 28 47
-0.074219 0.203125 -0.103479 72 28 47
-0.070312 0.203125 -0.103828 72 28 47
-0.066406 0.203125 -0.104174 71 27 46
-0.062500 0.203125 -0.104392 71 27 46
-0.058594 0.203125 -0.104747 71 27 46
-0.054688 0.203125 -0.104963 71 27 46
-0.050781 0.203125 -0.105190 71 27 46
-0.046875 0.203125 -0.105343 70 27 46
-0.042969 0.203125 -0.105551 70 27 46
-0.039062 0.203125 -0.105693 70 27 46
-0.035156 0.203125 -0.105888 71 28 47
-0.031250 0.203125 -0.106015 71 28 47
-0.027344 0.203125 -0.105985 71 28 47
-0.023438 0.203125 -0.105963 71 28 47
-0.019531 0.203125 -0.105828 71 28 47
-0.015625 0.203125 -0.105639 71 28 47
-0.011719 0.203125 -0.105409 71 28 47
-0.007812 0.203125 -0.105038 71 28 47
-0.003906 0.203125 -0.104582 70 29 47
0.000000 0.203125 -0.104080 70 29 47
0.003906 0.203125 -0.103363 70 29 47
0.007812 0.203125 -0.102448 70 29 47
0.011719 0.203125 -0.101496 70 29 47
0.015625 0.203125 -0.100421 70 29 47
0.019531 0.203125 -0.099136 70 29 47
0.023438 0.203125 -0.097761 71 30 48
0.027344 0.203125 -0.096212 72 31 49
0.031250 0.203125 -0.094732 72 31 49
0.035156 0.203125 -0.093009 72 31 49
0.039062 0.203125 -0.090918 71 30 48
0.042969 0.203125 -0.089104 71 30 48
0.046875 0.203125 -0.087031 71 30 48
0.050781 0.203125 -0.085431 70 29 47
0.054688 0.203125 -0.083874 70 29 47
0.058594 0.203125 -0.082171 68 26 46
0.062500 0.203125 -0.080503 68 26 46
0.066406 0.203125 -0.078397 68 26 46
0.070312 0.203125 -0.075621 68 26 46
0.074219 0.203125 -0.072657 68 26 46
0.078125 0.203125 -0.069386 69 27 47
0.082031 0.203125 -0.065397 70 28 48
0.085938 0.203125 -0.060788 71 29 49
0.089844 0.203125 -0.055809 71 29 49
0.093750 0.203125 -0.050354 72 30 50
0.097656 0.203125 -0.045568 74 32 52
0.101562 0.203125 -0.039637 74 32 52
0.105469 0.203125 -0.033290 74 32 52
0.109375 0.203125 -0.022325 73 34 55
-0.230469 0.199219 -0.013039 77 28 49
-0.226562 0.199219 -0.022937 76 31 51
-0.222656 0.199219 -0.029988 75 35 53
-0.218750 0.199219 -0.036372 71 45 57
-0.214844 0.199219 -0.041919 24 14 17
-0.210938 0.199219 -0.047480 22 15 17
-0.207031 0.199219 -0.052564 25 16 18
-0.203125 0.199219 -0.057064 28 20 20
-0.199219 0.199219 -0.060926 33 26 22
-0.195312 0.199219 -0.064450 89 79 75
-0.191406 0.199219 -0.067805 103 63 79
-0.187500 0.199219 -0.071171 76 35 53
-0.183594 0.199219 -0.074198 78 35 54
-0.179688 0.199219 -0.077187 80 35 55
-0.175781 0.199219 -0.079932 79 34 54
-0.171875 0.199219 -0.082509 84 37 57
-0.167969 0.199219 -0.084616 78 29 50
-0.164062 0.199219 -0.086359 82 33 54
-0.160156 0.199219 -0.087824 80 31 52
-0.156250 0.199219 -0.089314 80 31 52
-0.152344 0.199219 -0.090493 78 31 51
-0.148438 0.199219 -0.091501 75 30 50
-0.144531 0.199219 -0.092477 75 30 50
-0.140625 0.199219 -0.093392 73 30 49
-0.136719 0.199219 -0.094046 72 30 48
-0.132812 0.199219 -0.094507 72 30 48
-0.128906 0.199219 -0.094961 73 29 48
-0.125000 0.199219 -0.095374 73 29 48
-0.121094 0.199219 -0.095942 73 29 48
-0.117188 0.199219 -0.096736 73 29 48
-0.113281 0.199219 -0.097483 73 29 48
-0.109375 0.199219 -0.098165 73 29 48
-0.105469 0.199219 -0.098887 73 29 48
-0.101562 0.199219 -0.099576 73 29 48
-0.097656 0.199219 -0.100315 74 30 49
-0.093750 0.199219 -0.101009 74 30 49
-0.089844 0.199219 -0.101658 74 30 49
-0.085938 0.199219 -0.102323 73 29 48
-0.082031 0.199219 -0.102951 73 29 48
-0.078125 0.199219 -0.103455 72 28 47
-0.074219 0.199219 -0.103984 72 28 47
-0.070312 0.199219 -0.104318 72 28 47
-0.066406 0.199219 -0.104742 71 27 46
-0.062500 0.199219 -0.105171 71 27 46
-0.058594 0.199219 -0.105417 71 27 46
-0.054688 0.199219 -0.105701 70 27 46
-0.050781 0.199219 -0.105980 70 27 46
-0.046875 0.199219 -0.106176 70 27 46
-0.042969 0.199219 -0.106465 70 27 46
-0.039062 0.199219 -0.106745 70 27 46
-0.035156 0.199219 -0.106965 71 28 47
-0.031250 0.199219 -0.107121 71 28 47
-0.027344 0.199219 -0.107246 71 28 47
-0.023438 0.199219 -0.107259 71 28 47
-0.019531 0.199219 -0.107289 71 28 47
-0.015625 0.199219 -0.107173 71 28 47
-0.011719 0.199219 -0.106884 71 28 47
-0.007812 0.199219 -0.106613 71 28 47
-0.003906 0.199219 -0.106234 70 29 47
0.000000 0.199219 -0.105741 70 29 47
0.003906 0.199219 -0.105046 70 29 47
0.007812 0.199219 -0.104289 70 29 47
0.011719 0.199219 -0.103264 70 29 47
0.015625 0.199219 -0.102124 70 29 47
0.019531 0.199219 -0.100799 70 29 47
0.023438 0.199219 -0.099369 69 28 46
0.027344 0.199219 -0.097920 72 31 49
0.031250 0.199219 -0.096385 72 31 49
0.035156 0.199219 -0.094593 71 30 48
0.039062 0.199219 -0.092591 71 30 48
0.042969 0.199219 -0.090677 71 30 48
0.046875 0.199219 -0.088641 70 29 47
0.050781 0.199219 -0.086839 70 29 47
0.054688 0.199219 -0.085188 70 29 47
0.058594 0.199219 -0.083417 69 27 47
0.062500 0.199219 -0.081695 69 27 47
0.066406 0.199219 -0.079394 68 26 46
0.070312 0.199219 -0.076492 68 26 46
0.074219 0.199219 -0.073414 68 26 46
0.078125 0.199219 -0.070063 69 27 47
0.082031 0.199219 -0.065999 70 28 48
0.085938 0.199219 -0.061282 71 29 49
0.089844 0.199219 -0.056365 70 28 48
0.093750 0.199219 -0.051070 72 30 50
0.097656 0.199219 -0.046306 74 32 52
0.101562 0.199219 -0.041135 74 32 52
0.105469 0.199219 -0.034765 74 32 52
0.109375 0.199219 -0.028164 74 34 54
-0.230469 0.195312 -0.016669 77 28 49
-0.226562 0.195312 -0.025375 76 31 51
-0.222656 0.195312 -0.032010 74 34 52
-0.218750 0.195312 -0.038044 71 45 57
-0.214844 0.195312 -0.043347 23 13 16
-0.210938 0.195312 -0.048469 21 14 16
-0.207031 0.195312 -0.053250 23 14 16
-0.203125 0.195312 -0.057752 26 19 18
-0.199219 0.195312 -0.061548 30 23 20
-0.195312 0.195312 -0.065072 82 74 70
-0.191406 0.195312 -0.068435 93 53 70
-0.187500 0.195312 -0.071746 70 29 47
-0.183594 0.195312 -0.074757 74 31 50
-0.179688 0.195312 -0.077862 77 32 52
-0.175781 0.195312 -0.080648 76 31 51
-0.171875 0.195312 -0.083288 84 37 57
-0.167969 0.195312 -0.085517 80 31 52
-0.164062 0.195312 -0.087224 83 34 55
-0.160156 0.195312 -0.088782 80 31 52
-0.156250 0.195312 -0.090240 80 31 52
-0.152344 0.195312 -0.091334 78 31 51
-0.148438 0.195312 -0.092270 75 30 50
-0.144531 0.195312 -0.093251 75 30 50
-0.140625 0.195312 -0.094051 73 30 49
-0.136719 0.195312 -0.094656 71 30 48
-0.132812 0.195312 -0.095110 72 30 48
-0.128906 0.195312 -0.095431 73 29 48
-0.125000 0.195312 -0.095818 73 29 48
-0.121094 0.195312 -0.096405 73 29 48
-0.117188 0.195312 -0.097218 73 29 48
-0.113281 0.195312 -0.097963 73 29 48
-0.109375 0.195312 -0.098647 73 29 48
-0.105469 0.195312 -0.099428 73 29 48
-0.101562 0.195312 -0.100024 73 29 48
-0.097656 0.195312 -0.100819 74 30 49
-0.093750 0.195312 -0.101480 74 30 49
-0.089844 0.195312 -0.102191 74 30 49
-0.085938 0.195312 -0.102840 73 29 48
-0.082031 0.195312 -0.103459 73 29 48
-0.078125 0.195312 -0.104105 72 28 47
-0.074219 0.195312 -0.104582 72 28 47
-0.070312 0.195312 -0.105007 72 28 47
-0.066406 0.195312 -0.105437 71 27 46
-0.062500 0.195312 -0.105772 71 27 46
-0.058594 0.195312 -0.106182 70 27 46
-0.054688 0.195312 -0.106538 70 27 46
-0.050781 0.195312 -0.106831 70 27 46
-0.046875 0.195312 -0.107268 70 27 46
-0.042969 0.195312 -0.107556 70 27 46
-0.039062 0.195312 -0.107949 70 27 46
-0.035156 0.195312 -0.108134 70 27 46
-0.031250 0.195312 -0.108458 70 27 46
-0.027344 0.195312 -0.108639 70 27 46
-0.023438 0.195312 -0.108804 70 27 46
-0.019531 0.195312 -0.108800 70 27 46
-0.015625 0.195312 -0.108814 70 27 46
-0.011719 0.195312 -0.108634 70 27 46
-0.007812 0.195312 -0.108335 70 27 46
-0.003906 0.195312 -0.107967 70 29 47
0.000000 0.195312 -0.107405 70 29 47
0.003906 0.195312 -0.106774 70 29 47
0.007812 0.195312 -0.106027 70 29 47
0.011719 0.195312 -0.105066 69 28 46
0.015625 0.195312 -0.103983 69 28 46
0.019531 0.195312 -0.102657 69 28 46
0.023438 0.195312 -0.101247 69 28 46
0.027344 0.195312 -0.099653 71 30 48
0.031250 0.195312 -0.098075 71 30 48
0.035156 0.195312 -0.096218 71 30 48
0.039062 0.195312 -0.094213 71 30 48
0.042969 0.195312 -0.092360 70 29 47
0.046875 0.195312 -0.090224 70 29 47
0.050781 0.195312 -0.088419 70 29 47
0.054688 0.195312 -0.086588 69 28 46
0.058594 0.195312 -0.084700 70 28 48
0.062500 0.195312 -0.082855 69 27 47
0.066406 0.195312 -0.080410 69 27 47
0.070312 0.195312 -0.077441 68 26 46
0.074219 0.195312 -0.074108 68 26 46
0.078125 0.195312 -0.070648 69 27 47
0.082031 0.195312 -0.066525 70 28 48
0.085938 0.195312 -0.061750 70 28 48
0.089844 0.195312 -0.056878 69 27 47
0.093750 0.195312 -0.051805 71 29 49
0.097656 0.195312 -0.047153 73 31 51
0.101562 0.195312 -0.042235 74 32 52
0.105469 0.195312 -0.036347 75 33 53
0.109375 0.195312 -0.029854 67 29 49
0.113281 0.195312 -0.015098 24 20 25
-0.230469 0.191406 -0.019728 77 28 49
-0.226562 0.191406 -0.027497 76 31 51
-0.222656 0.191406 -0.033878 74 34 51
-0.218750 0.191406 -0.039799 70 43 55
-0.214844 0.191406 -0.044688 22 13 16
-0.210938 0.191406 -0.049523 21 14 16
-0.207031 0.191406 -0.054092 23 14 16
-0.203125 0.191406 -0.058475 25 18 18
-0.199219 0.191406 -0.062164 30 24 21
-0.195312 0.191406 -0.065613 83 77 73
-0.191406 0.191406 -0.068980 91 51 67
-0.187500 0.191406 -0.072228 69 28 46
-0.183594 0.191406 -0.075352 75 32 51
-0.179688 0.191406 -0.078424 76 31 51
-0.175781 0.191406 -0.081370 75 30 50
-0.171875 0.191406 -0.084035 84 37 57
-0.167969 0.191406 -0.086212 80 31 52
-0.164062 0.191406 -0.087980 83 34 55
-0.160156 0.191406 -0.089545 80 31 52
-0.156250 0.191406 -0.090920 80 31 52
-0.152344 0.191406 -0.092139 78 31 51
-0.148438 0.191406 -0.093024 75 30 50
-0.144531 0.191406 -0.093935 75 30 50
-0.140625 0.191406 -0.094787 73 30 49
-0.136719 0.191406 -0.095297 71 30 48
-0.132812 0.191406 -0.095645 71 30 48
-0.128906 0.191406 -0.096015 73 29 48
-0.125000 0.191406 -0.096267 73 29 48
-0.121094 0.191406 -0.096847 73 29 48
-0.117188 0.191406 -0.097642 73 29 48
-0.113281 0.191406 -0.098440 73 29 48
-0.109375 0.191406 -0.099151 73 29 48
-0.105469 0.191406 -0.099821 73 29 48
-0.101562 0.191406 -0.100630 73 29 48
-0.097656 0.191406 -0.101353 74 30 49
-0.093750 0.191406 -0.102108 74 30 49
-0.089844 0.191406 -0.102798 74 30 49
-0.085938 0.191406 -0.103416 73 29 48
-0.082031 0.191406 -0.104121 73 29 48
-0.078125 0.191406 -0.104675 72 28 47
-0.074219 0.191406 -0.105213 72 28 47
-0.070312 0.191406 -0.105668 72 28 47
-0.066406 0.191406 -0.106108 71 27 46
-0.062500 0.191406 -0.106606 70 27 46
-0.058594 0.191406 -0.106960 70 27 46
-0.054688 0.191406 -0.107421 70 27 46
-0.050781 0.191406 -0.107815 70 27 46
-0.046875 0.191406 -0.108195 70 27 46
-0.042969 0.191406 -0.108606 70 27 46
-0.039062 0.191406 -0.109061 70 27 46
-0.035156 0.191406 -0.109459 70 27 46
-0.031250 0.191406 -0.109831 70 27 46
-0.027344 0.191406 -0.110096 70 27 46
-0.023438 0.191406 -0.110306 70 27 46
-0.019531 0.191406 -0.110423 70 27 46
-0.015625 0.191406 -0.110352 70 27 46
-0.011719 0.191406 -0.110214 70 27 46
-0.007812 0.191406 -0.109988 70 27 46
-0.003906 0.191406 -0.109595 70 29 47
0.000000 0.191406 -0.109126 70 29 47
0.003906 0.191406 -0.108494 70 29 47
0.007812 0.191406 -0.107630 69 28 46
0.011719 0.191406 -0.106716 69 28 46
0.015625 0.191406 -0.105491 68 27 45
0.019531 0.191406 -0.104142 68 27 45
0.023438 0.191406 -0.102848 68 27 45
0.027344 0.191406 -0.101123 71 30 48
0.031250 0.191406 -0.099555 71 30 48
0.035156 0.191406 -0.097749 71 30 48
0.039062 0.191406 -0.095652 70 29 47
0.042969 0.191406 -0.093794 70 29 47
0.046875 0.191406 -0.091622 70 29 47
0.050781 0.191406 -0.089713 69 28 46
0.054688 0.191406 -0.087810 69 28 46
0.058594 0.191406 -0.085877 70 28 48
0.062500 0.191406 -0.083825 69 27 47
0.066406 0.191406 -0.081265 69 27 47
0.070312 0.191406 -0.078204 68 26 46
0.074219 0.191406 -0.074772 68 26 46
0.078125 0.191406 -0.071174 69 27 47
0.082031 0.191406 -0.066955 69 27 47
0.085938 0.191406 -0.062299 70 28 48
0.089844 0.191406 -0.057420 68 26 46
0.093750 0.191406 -0.052451 71 29 49
0.097656 0.191406 -0.047826 73 31 51
0.101562 0.191406 -0.042896 75 33 53
0.105469 0.191406 -0.037973 75 33 53
0.109375 0.191406 -0.032149 69 30 49
0.113281 0.191406 -0.023934 38 22 33
-0.234375 0.187500 -0.012092 70 31 49
-0.230469 0.187500 -0.022362 77 28 49
-0.226562 0.187500 -0.029623 76 31 51
-0.222656 0.187500 -0.035759 72 32 49
-0.218750 0.187500 -0.041370 71 42 55
-0.214844 0.187500 -0.046070 25 14 18
-0.210938 0.187500 -0.050666 25 17 19
-0.207031 0.187500 -0.054986 25 15 18
-0.203125 0.187500 -0.059179 28 20 20
-0.199219 0.187500 -0.062837 33 26 24
-0.195312 0.187500 -0.066160 91 85 82
-0.191406 0.187500 -0.069459 95 55 72
-0.187500 0.187500 -0.072684 74 33 51
-0.183594 0.187500 -0.075810 79 36 55
-0.179688 0.187500 -0.078980 79 34 54
-0.175781 0.187500 -0.081962 76 31 51
-0.171875 0.187500 -0.084711 84 37 57
-0.167969 0.187500 -0.087000 79 30 51
-0.164062 0.187500 -0.088813 81 32 53
-0.160156 0.187500 -0.090321 80 31 52
-0.156250 0.187500 -0.091713 80 31 52
-0.152344 0.187500 -0.092932 78 31 51
-0.148438 0.187500 -0.093774 75 30 50
-0.144531 0.187500 -0.094636 75 30 50
-0.140625 0.187500 -0.095388 73 30 49
-0.136719 0.187500 -0.095876 71 30 48
-0.132812 0.187500 -0.096171 71 30 48
-0.128906 0.187500 -0.096461 72 29 48
-0.125000 0.187500 -0.096714 73 29 48
-0.121094 0.187500 -0.097322 73 29 48
-0.117188 0.187500 -0.098202 73 29 48
-0.113281 0.187500 -0.098896 73 29 48
-0.109375 0.187500 -0.099675 73 29 48
-0.105469 0.187500 -0.100490 73 29 48
-0.101562 0.187500 -0.101364 73 29 48
-0.097656 0.187500 -0.102048 74 30 49
-0.093750 0.187500 -0.102766 74 30 49
-0.089844 0.187500 -0.103495 74 30 49
-0.085938 0.187500 -0.104149 73 29 48
-0.082031 0.187500 -0.104769 73 29 48
-0.078125 0.187500 -0.105377 72 28 47
-0.074219 0.187500 -0.105921 72 28 47
-0.070312 0.187500 -0.106368 72 28 47
-0.066406 0.187500 -0.106873 70 27 46
-0.062500 0.187500 -0.107337 70 27 46
-0.058594 0.187500 -0.107756 70 27 46
-0.054688 0.187500 -0.108233 70 27 46
-0.050781 0.187500 -0.108750 70 27 46
-0.046875 0.187500 -0.109215 70 27 46
-0.042969 0.187500 -0.109811 70 27 46
-0.039062 0.187500 -0.110363 70 27 46
-0.035156 0.187500 -0.110805 70 27 46
-0.031250 0.187500 -0.111278 70 27 46
-0.027344 0.187500 -0.111559 70 27 46
-0.023438 0.187500 -0.111772 70 27 46
-0.019531 0.187500 -0.111909 70 27 46
-0.015625 0.187500 -0.112024 70 27 46
-0.011719 0.187500 -0.111814 70 27 46
-0.007812 0.187500 -0.111623 70 27 46
-0.003906 0.187500 -0.111248 70 29 47
0.000000 0.187500 -0.110677 70 29 47
0.003906 0.187500 -0.110078 70 29 47
0.007812 0.187500 -0.109283 69 28 46
0.011719 0.187500 -0.108236 69 28 46
0.015625 0.187500 -0.107111 68 27 45
0.019531 0.187500 -0.105761 68 27 45
0.023438 0.187500 -0.104275 68 27 45
0.027344 0.187500 -0.102579 71 30 48
0.031250 0.187500 -0.100952 71 30 48
0.035156 0.187500 -0.099151 71 30 48
0.039062 0.187500 -0.097053 70 29 47
0.042969 0.187500 -0.095127 70 29 47
0.046875 0.187500 -0.092914 69 28 46
0.050781 0.187500 -0.090991 69 28 46
0.054688 0.187500 -0.088957 69 28 46
0.058594 0.187500 -0.086969 70 28 48
0.062500 0.187500 -0.084815 70 28 48
0.066406 0.187500 -0.082181 69 27 47
0.070312 0.187500 -0.078907 68 26 46
0.074219 0.187500 -0.075377 68 26 46
0.078125 0.187500 -0.071564 68 26 46
0.082031 0.187500 -0.067379 69 27 47
0.085938 0.187500 -0.062574 69 27 47
0.089844 0.187500 -0.057844 68 26 46
0.093750 0.187500 -0.052955 70 28 48
0.097656 0.187500 -0.048554 73 31 51
0.101562 0.187500 -0.043933 75 33 53
0.105469 0.187500 -0.039197 75 33 53
0.109375 0.187500 -0.033741 75 33 53
0.113281 0.187500 -0.028103 97 52 73
-0.234375 0.183594 -0.015068 70 31 49
-0.230469 0.183594 -0.024634 70 31 49
-0.226562 0.183594 -0.031908 72 31 49
-0.222656 0.183594 -0.037707 72 32 49
-0.218750 0.183594 -0.043124 77 42 57
-0.214844 0.183594 -0.047461 37 21 28
-0.210938 0.183594 -0.051824 30 20 24
-0.207031 0.183594 -0.056048 29 18 21
-0.203125 0.183594 -0.060002 29 20 22
-0.199219 0.183594 -0.063643 34 27 25
-0.195312 0.183594 -0.066836 93 88 86
-0.191406 0.183594 -0.070065 98 58 75
-0.187500 0.183594 -0.073189 78 37 55
-0.183594 0.183594 -0.076363 72 29 48
-0.179688 0.183594 -0.079545 79 34 54
-0.175781 0.183594 -0.082565 78 33 53
-0.171875 0.183594 -0.085425 80 33 53
-0.167969 0.183594 -0.087689 83 34 55
-0.164062 0.183594 -0.089508 80 31 52
-0.160156 0.183594 -0.091176 79 30 51
-0.156250 0.183594 -0.092474 79 30 51
-0.152344 0.183594 -0.093563 77 30 50
-0.148438 0.183594 -0.094443 74 29 49
-0.144531 0.183594 -0.095291 74 29 49
-0.140625 0.183594 -0.095948 72 29 48
-0.136719 0.183594 -0.096404 70 29 47
-0.132812 0.183594 -0.096674 70 29 47
-0.128906 0.183594 -0.096893 72 29 48
-0.125000 0.183594 -0.097225 72 29 48
-0.121094 0.183594 -0.097878 73 29 48
-0.117188 0.183594 -0.098791 73 29 48
-0.113281 0.183594 -0.099534 73 29 48
-0.109375 0.183594 -0.100394 73 29 48
-0.105469 0.183594 -0.101158 73 29 48
-0.101562 0.183594 -0.101992 73 29 48
-0.097656 0.183594 -0.102768 75 31 50
-0.093750 0.183594 -0.103601 75 31 50
-0.089844 0.183594 -0.104267 75 31 50
-0.085938 0.183594 -0.104929 74 30 49
-0.082031 0.183594 -0.105581 74 30 49
-0.078125 0.183594 -0.106148 73 29 48
-0.074219 0.183594 -0.106716 72 29 48
-0.070312 0.183594 -0.107170 72 29 48
-0.066406 0.183594 -0.107655 70 27 46
-0.062500 0.183594 -0.108203 70 27 46
-0.058594 0.183594 -0.108769 70 27 46
-0.054688 0.183594 -0.109268 69 26 45
-0.050781 0.183594 -0.109794 69 26 45
-0.046875 0.183594 -0.110427 68 25 44
-0.042969 0.183594 -0.110945 68 25 44
-0.039062 0.183594 -0.111558 68 25 44
-0.035156 0.183594 -0.112109 69 26 45
-0.031250 0.183594 -0.112617 69 26 45
-0.027344 0.183594 -0.113006 69 26 45
-0.023438 0.183594 -0.113398 70 27 46
-0.019531 0.183594 -0.113506 70 27 46
-0.015625 0.183594 -0.113536 71 28 47
-0.011719 0.183594 -0.113468 71 28 47
-0.007812 0.183594 -0.113157 71 28 47
-0.003906 0.183594 -0.112746 69 28 46
0.000000 0.183594 -0.112241 69 28 46
0.003906 0.183594 -0.111498 69 28 46
0.007812 0.183594 -0.110596 69 28 46
0.011719 0.183594 -0.109646 69 28 46
0.015625 0.183594 -0.108383 69 28 46
0.019531 0.183594 -0.107081 69 28 46
0.023438 0.183594 -0.105510 69 28 46
0.027344 0.183594 -0.103918 69 28 46
0.031250 0.183594 -0.102227 69 28 46
0.035156 0.183594 -0.100356 69 28 46
0.039062 0.183594 -0.098239 69 28 46
0.042969 0.183594 -0.096353 69 28 46
0.046875 0.183594 -0.094198 69 28 46
0.050781 0.183594 -0.092141 69 28 46
0.054688 0.183594 -0.090019 69 28 46
0.058594 0.183594 -0.087932 71 29 49
0.062500 0.183594 -0.085692 71 29 49
0.066406 0.183594 -0.082926 71 29 49
0.070312 0.183594 -0.079580 70 28 48
0.074219 0.183594 -0.075957 70 28 48
0.078125 0.183594 -0.072082 69 27 47
0.082031 0.183594 -0.067661 69 27 47
0.085938 0.183594 -0.062974 69 27 47
0.089844 0.183594 -0.058235 70 28 48
0.093750 0.183594 -0.053363 71 29 49
0.097656 0.183594 -0.049008 71 29 49
0.101562 0.183594 -0.044433 72 30 50
0.105469 0.183594 -0.040081 74 32 52
0.109375 0.183594 -0.034526 76 34 54
0.113281 0.183594 -0.029541 78 35 56
-0.234375 0.179688 -0.018328 70 31 49
-0.230469 0.179688 -0.026934 70 31 49
-0.226562 0.179688 -0.033849 72 31 49
-0.222656 0.179688 -0.039415 72 32 50
-0.218750 0.179688 -0.044640 74 38 53
-0.214844 0.179688 -0.049087 39 21 29
-0.210938 0.179688 -0.053169 35 25 29
-0.207031 0.179688 -0.057074 32 21 25
-0.203125 0.179688 -0.061001 32 23 24
-0.199219 0.179688 -0.064390 37 30 28
-0.195312 0.179688 -0.067523 101 96 94
-0.191406 0.179688 -0.070692 97 57 74
-0.187500 0.179688 -0.073789 78 37 55
-0.183594 0.179688 -0.076841 72 29 48
-0.179688 0.179688 -0.080044 79 34 54
-0.175781 0.179688 -0.083169 78 33 53
-0.171875 0.179688 -0.085989 80 33 53
-0.167969 0.179688 -0.088339 83 34 55
-0.164062 0.179688 -0.090112 80 31 52
-0.160156 0.179688 -0.091746 79 30 51
-0.156250 0.179688 -0.093138 79 30 51
-0.152344 0.179688 -0.094239 77 30 50
-0.148438 0.179688 -0.095088 74 29 49
-0.144531 0.179688 -0.095838 74 29 49
-0.140625 0.179688 -0.096504 72 29 48
-0.136719 0.179688 -0.096962 70 29 47
-0.132812 0.179688 -0.097202 70 29 47
-0.128906 0.179688 -0.097458 72 29 48
-0.125000 0.179688 -0.097801 72 29 48
-0.121094 0.179688 -0.098431 72 29 48
-0.117188 0.179688 -0.099417 72 29 48
-0.113281 0.179688 -0.100237 72 29 48
-0.109375 0.179688 -0.101128 73 29 48
-0.105469 0.179688 -0.101962 73 29 48
-0.101562 0.179688 -0.102891 73 29 48
-0.097656 0.179688 -0.103721 74 30 49
-0.093750 0.179688 -0.104499 73 30 49
-0.089844 0.179688 -0.105200 72 29 48
-0.085938 0.179688 -0.105816 72 29 48
-0.082031 0.179688 -0.106488 71 28 47
-0.078125 0.179688 -0.107043 71 28 47
-0.074219 0.179688 -0.107509 71 28 47
-0.070312 0.179688 -0.108018 71 28 47
-0.066406 0.179688 -0.108539 70 27 46
-0.062500 0.179688 -0.109081 70 27 46
-0.058594 0.179688 -0.109586 70 27 46
-0.054688 0.179688 -0.110277 69 26 45
-0.050781 0.179688 -0.110869 69 26 45
-0.046875 0.179688 -0.111458 68 25 44
-0.042969 0.179688 -0.112150 68 25 44
-0.039062 0.179688 -0.112881 68 25 44
-0.035156 0.179688 -0.113573 69 26 45
-0.031250 0.179688 -0.114041 69 26 45
-0.027344 0.179688 -0.114471 69 26 45
-0.023438 0.179688 -0.114811 70 27 46
-0.019531 0.179688 -0.114969 70 27 46
-0.015625 0.179688 -0.115116 71 28 47
-0.011719 0.179688 -0.114862 71 28 47
-0.007812 0.179688 -0.114590 71 28 47
-0.003906 0.179688 -0.114069 69 28 46
0.000000 0.179688 -0.113475 69 28 46
0.003906 0.179688 -0.112743 69 28 46
0.007812 0.179688 -0.111931 69 28 46
0.011719 0.179688 -0.110686 69 28 46
0.015625 0.179688 -0.109472 69 28 46
0.019531 0.179688 -0.108106 69 28 46
0.023438 0.179688 -0.106647 69 28 46
0.027344 0.179688 -0.104922 70 29 47
0.031250 0.179688 -0.103351 70 29 47
0.035156 0.179688 -0.101395 70 29 47
0.039062 0.179688 -0.099422 70 29 47
0.042969 0.179688 -0.097434 70 29 47
0.046875 0.179688 -0.095180 70 29 47
0.050781 0.179688 -0.093157 70 29 47
0.054688 0.179688 -0.091105 70 29 47
0.058594 0.179688 -0.088852 71 29 49
0.062500 0.179688 -0.086548 71 29 49
0.066406 0.179688 -0.083660 71 29 49
0.070312 0.179688 -0.080184 70 28 48
0.074219 0.179688 -0.076486 70 28 48
0.078125 0.179688 -0.072487 69 27 47
0.082031 0.179688 -0.068083 69 27 47
0.085938 0.179688 -0.063234 69 27 47
0.089844 0.179688 -0.058482 70 28 48
0.093750 0.179688 -0.053662 71 29 49
0.097656 0.179688 -0.049412 71 29 49
0.101562 0.179688 -0.044797 72 30 50
0.105469 0.179688 -0.040564 74 32 52
0.109375 0.179688 -0.035231 76 34 54
0.113281 0.179688 -0.030854 78 35 56
0.117188 0.179688 -0.017383 71 48 65
-0.234375 0.175781 -0.021571 70 31 49
-0.230469 0.175781 -0.029246 70 31 49
-0.226562 0.175781 -0.035730 72 31 49
-0.222656 0.175781 -0.041316 75 35 53
-0.218750 0.175781 -0.046331 73 37 53
-0.214844 0.175781 -0.050525 40 22 30
-0.210938 0.175781 -0.054435 36 26 30
-0.207031 0.175781 -0.058308 32 21 24
-0.203125 0.175781 -0.062057 32 23 24
-0.199219 0.175781 -0.065418 38 30 29
-0.195312 0.175781 -0.068405 105 99 99
-0.191406 0.175781 -0.071444 95 55 72
-0.187500 0.175781 -0.074311 77 36 54
-0.183594 0.175781 -0.077326 73 30 49
-0.179688 0.175781 -0.080637 79 34 54
-0.175781 0.175781 -0.083749 78 33 53
-0.171875 0.175781 -0.086653 80 33 53
-0.167969 0.175781 -0.089037 83 34 55
-0.164062 0.175781 -0.090883 80 31 52
-0.160156 0.175781 -0.092359 79 30 51
-0.156250 0.175781 -0.093797 79 30 51
-0.152344 0.175781 -0.094833 77 30 50
-0.148438 0.175781 -0.095590 74 29 49
-0.144531 0.175781 -0.096384 74 29 49
-0.140625 0.175781 -0.097022 72 29 48
-0.136719 0.175781 -0.097394 70 29 47
-0.132812 0.175781 -0.097614 70 29 47
-0.128906 0.175781 -0.097999 72 29 48
-0.125000 0.175781 -0.098454 72 29 48
-0.121094 0.175781 -0.099119 72 29 48
-0.117188 0.175781 -0.100161 72 29 48
-0.113281 0.175781 -0.101113 72 29 48
-0.109375 0.175781 -0.102080 72 29 48
-0.105469 0.175781 -0.102960 72 29 48
-0.101562 0.175781 -0.103848 72 29 48
-0.097656 0.175781 -0.104679 71 28 47
-0.093750 0.175781 -0.105476 71 28 47
-0.089844 0.175781 -0.106298 71 28 47
-0.085938 0.175781 -0.106889 71 28 47
-0.082031 0.175781 -0.107429 70 27 46
-0.078125 0.175781 -0.108048 70 27 46
-0.074219 0.175781 -0.108566 69 26 45
-0.070312 0.175781 -0.109024 69 26 45
-0.066406 0.175781 -0.109563 70 27 46
-0.062500 0.175781 -0.110040 70 27 46
-0.058594 0.175781 -0.110723 69 26 45
-0.054688 0.175781 -0.111215 69 26 45
-0.050781 0.175781 -0.111958 69 26 45
-0.046875 0.175781 -0.112729 69 26 45
-0.042969 0.175781 -0.113299 68 25 44
-0.039062 0.175781 -0.114135 68 25 44
-0.035156 0.175781 -0.114741 69 26 45
-0.031250 0.175781 -0.115367 69 26 45
-0.027344 0.175781 -0.115858 69 26 45
-0.023438 0.175781 -0.116177 70 27 46
-0.019531 0.175781 -0.116318 70 27 46
-0.015625 0.175781 -0.116301 71 28 47
-0.011719 0.175781 -0.116200 71 28 47
-0.007812 0.175781 -0.115732 71 28 47
-0.003906 0.175781 -0.115270 69 28 46
0.000000 0.175781 -0.114666 69 28 46
0.003906 0.175781 -0.113756 69 28 46
0.007812 0.175781 -0.112865 69 28 46
0.011719 0.175781 -0.111665 69 28 46
0.015625 0.175781 -0.110458 69 28 46
0.019531 0.175781 -0.109044 69 28 46
0.023438 0.175781 -0.107536 69 28 46
0.027344 0.175781 -0.105889 70 29 47
0.031250 0.175781 -0.104174 70 29 47
0.035156 0.175781 -0.102356 70 29 47
0.039062 0.175781 -0.100317 70 29 47
0.042969 0.175781 -0.098433 70 29 47
0.046875 0.175781 -0.096225 70 29 47
