ply
format ascii 1.0
element vertex 1172
property float x
property float y
property float z
property uchar red
property uchar green
property uchar blue
end_header
0.125000 0.398438 0.074167 244 238 241
0.128906 0.398438 0.071586 245 236 240
0.132812 0.398438 0.068434 243 236 239
0.136719 0.398438 0.064809 243 237 239
0.140625 0.398438 0.060337 244 239 241
0.144531 0.398438 0.055219 242 239 240
0.148438 0.398438 0.049626 238 237 237
0.152344 0.398438 0.042787 236 235 236
0.156250 0.398438 0.035446 232 232 232
0.160156 0.398438 0.026904 229 228 228
0.164062 0.398438 0.017490 227 226 226
0.167969 0.398438 0.006609 226 226 226
0.171875 0.398438 -0.004770 232 231 231
0.175781 0.398438 -0.015698 242 241 241
0.179688 0.398438 -0.024995 248 247 247
0.183594 0.398438 -0.032393 251 249 249
0.187500 0.398438 -0.038204 251 247 248
0.191406 0.398438 -0.042322 240 226 228
0.195312 0.398438 -0.044990 235 214 210
0.199219 0.398438 -0.046919 231 205 192
0.203125 0.398438 -0.049016 229 198 180
0.207031 0.398438 -0.050933 232 196 175
0.210938 0.398438 -0.054193 228 180 153
0.214844 0.398438 -0.058322 231 182 149
0.218750 0.398438 -0.061108 233 185 147
0.222656 0.398438 -0.065813 231 184 145
0.226562 0.398438 -0.079429 228 192 156
-0.218750 0.394531 -0.041888 203 185 167
-0.214844 0.394531 -0.047047 209 184 151
-0.210938 0.394531 -0.037631 195 156 123
-0.207031 0.394531 -0.032876 202 158 125
-0.203125 0.394531 -0.030677 205 160 128
-0.199219 0.394531 -0.027770 206 160 131
-0.195312 0.394531 -0.026261 209 164 135
-0.191406 0.394531 -0.024292 209 164 136
-0.187500 0.394531 -0.022818 211 168 140
-0.183594 0.394531 -0.021186 211 169 142
-0.179688 0.394531 -0.020065 209 168 142
-0.175781 0.394531 -0.019120 207 165 140
-0.171875 0.394531 -0.018474 197 155 133
-0.167969 0.394531 -0.018030 188 148 129
-0.164062 0.394531 -0.018126 179 143 127
-0.160156 0.394531 -0.018583 168 143 129
-0.156250 0.394531 -0.019569 166 147 141
-0.152344 0.394531 -0.019503 172 153 155
-0.148438 0.394531 -0.017239 214 197 201
-0.144531 0.394531 -0.010092 238 234 235
-0.140625 0.394531 0.001269 237 236 236
-0.136719 0.394531 0.012046 229 228 228
-0.132812 0.394531 0.021240 216 215 214
-0.128906 0.394531 0.028394 218 217 214
-0.125000 0.394531 0.035001 230 226 223
-0.121094 0.394531 0.041174 226 223 222
-0.117188 0.394531 0.047400 225 224 222
-0.113281 0.394531 0.053553 225 225 225
-0.109375 0.394531 0.059246 225 226 228
-0.105469 0.394531 0.064505 228 229 233
-0.101562 0.394531 0.068810 230 234 237
-0.097656 0.394531 0.072854 233 237 240
-0.093750 0.394531 0.076517 235 241 241
-0.089844 0.394531 0.079804 239 243 244
-0.085938 0.394531 0.082864 241 245 244
-0.082031 0.394531 0.085798 242 244 241
-0.078125 0.394531 0.088383 241 243 238
-0.074219 0.394531 0.090664 242 243 238
-0.070312 0.394531 0.092682 243 243 235
-0.066406 0.394531 0.094483 241 237 226
-0.062500 0.394531 0.096067 242 236 222
-0.058594 0.394531 0.097357 241 235 219
-0.054688 0.394531 0.098525 239 232 214
-0.050781 0.394531 0.099477 238 227 209
-0.046875 0.394531 0.100250 235 222 203
-0.042969 0.394531 0.100923 233 218 199
-0.039062 0.394531 0.101367 232 215 195
-0.035156 0.394531 0.101697 231 214 194
-0.031250 0.394531 0.101953 228 211 191
-0.027344 0.394531 0.102080 231 213 193
-0.023438 0.394531 0.102162 236 219 201
-0.019531 0.394531 0.102125 240 223 205
-0.015625 0.394531 0.101986 238 221 205
-0.011719 0.394531 0.101681 236 220 204
-0.007812 0.394531 0.101442 238 222 207
-0.003906 0.394531 0.100887 244 227 217
0.000000 0.394531 0.100528 239 222 214
0.003906 0.394531 0.100166 231 217 208
0.007812 0.394531 0.099734 224 210 201
0.011719 0.394531 0.099395 217 203 195
0.015625 0.394531 0.098982 215 205 196
0.019531 0.394531 0.098666 227 216 210
0.023438 0.394531 0.098226 240 231 224
0.027344 0.394531 0.097810 249 242 236
0.031250 0.394531 0.097296 248 243 237
0.035156 0.394531 0.096914 247 242 238
0.039062 0.394531 0.096499 244 241 236
0.042969 0.394531 0.096146 242 241 237
0.046875 0.394531 0.095749 245 244 240
0.050781 0.394531 0.095257 241 242 237
0.054688 0.394531 0.094739 236 236 234
0.058594 0.394531 0.094284 234 234 234
0.062500 0.394531 0.093585 237 235 236
0.066406 0.394531 0.093013 239 235 234
0.070312 0.394531 0.092346 238 230 228
0.074219 0.394531 0.091579 234 223 219
0.078125 0.394531 0.090791 233 218 213
0.082031 0.394531 0.089971 234 216 212
0.085938 0.394531 0.088939 236 217 211
0.089844 0.394531 0.087963 249 230 226
0.093750 0.394531 0.086783 234 216 212
0.097656 0.394531 0.085711 227 211 211
0.101562 0.394531 0.084353 235 223 223
0.105469 0.394531 0.083157 243 234 235
0.109375 0.394531 0.081692 236 231 235
0.113281 0.394531 0.080278 225 223 228
0.117188 0.394531 0.078623 220 219 224
0.121094 0.394531 0.076659 245 242 245
0.125000 0.394531 0.074275 243 237 240
0.128906 0.394531 0.071778 245 237 240
0.132812 0.394531 0.068611 244 237 240
0.136719 0.394531 0.064963 243 237 239
0.140625 0.394531 0.060554 244 239 241
0.144531 0.394531 0.055477 242 239 240
0.148438 0.394531 0.049826 238 237 237
0.152344 0.394531 0.043021 237 236 236
0.156250 0.394531 0.035521 233 232 232
0.160156 0.394531 0.026838 229 229 229
0.164062 0.394531 0.017104 226 226 226
0.167969 0.394531 0.005811 224 224 224
0.171875 0.394531 -0.006031 228 228 228
0.175781 0.394531 -0.017095 237 237 237
0.179688 0.394531 -0.026173 244 244 244
0.183594 0.394531 -0.033237 248 247 247
0.187500 0.394531 -0.038763 248 246 247
0.191406 0.394531 -0.042469 244 237 240
0.195312 0.394531 -0.044889 241 229 230
0.199219 0.394531 -0.046735 229 207 202
0.203125 0.394531 -0.048551 223 195 186
0.207031 0.394531 -0.050370 225 192 178
0.210938 0.394531 -0.053475 223 178 158
0.214844 0.394531 -0.057114 228 182 155
0.218750 0.394531 -0.060329 232 184 151
0.222656 0.394531 -0.064226 233 186 150
0.226562 0.394531 -0.076999 231 194 158
-0.218750 0.390625 -0.044284 200 181 162
-0.214844 0.390625 -0.047447 205 175 143
-0.210938 0.390625 -0.038115 192 150 118
-0.207031 0.390625 -0.033373 200 156 123
-0.203125 0.390625 -0.031102 204 159 127
-0.199219 0.390625 -0.028292 205 159 130
-0.195312 0.390625 -0.026936 208 163 135
-0.191406 0.390625 -0.025115 209 164 136
-0.187500 0.390625 -0.023661 210 167 140
-0.183594 0.390625 -0.022128 210 168 141
-0.179688 0.390625 -0.021159 208 167 141
-0.175781 0.390625 -0.020295 206 165 140
-0.171875 0.390625 -0.019677 197 157 134
-0.167969 0.390625 -0.019326 188 151 131
-0.164062 0.390625 -0.019418 180 147 129
-0.160156 0.390625 -0.019975 168 143 129
-0.156250 0.390625 -0.021208 163 144 138
-0.152344 0.390625 -0.021053 173 155 155
-0.148438 0.390625 -0.018275 219 203 207
-0.144531 0.390625 -0.009935 239 237 237
-0.140625 0.390625 0.002035 238 237 237
-0.136719 0.390625 0.012766 228 227 227
-0.132812 0.390625 0.021683 213 212 210
-0.128906 0.390625 0.028661 215 214 213
-0.125000 0.390625 0.034982 228 224 222
-0.121094 0.390625 0.041083 225 224 222
-0.117188 0.390625 0.047282 225 225 223
-0.113281 0.390625 0.053269 227 227 229
-0.109375 0.390625 0.058969 226 227 229
-0.105469 0.390625 0.064089 226 230 233
-0.101562 0.390625 0.068428 228 233 236
-0.097656 0.390625 0.072401 228 233 236
-0.093750 0.390625 0.075982 231 236 239
-0.089844 0.390625 0.079288 237 241 242
-0.085938 0.390625 0.082368 239 243 242
-0.082031 0.390625 0.085305 242 244 243
-0.078125 0.390625 0.087895 241 243 240
-0.074219 0.390625 0.090241 243 244 239
-0.070312 0.390625 0.092300 243 244 238
-0.066406 0.390625 0.094107 246 243 234
-0.062500 0.390625 0.095666 245 241 229
-0.058594 0.390625 0.097019 242 238 226
-0.054688 0.390625 0.098110 244 238 222
-0.050781 0.390625 0.099088 246 237 222
-0.046875 0.390625 0.099980 245 233 217
-0.042969 0.390625 0.100554 240 227 210
-0.039062 0.390625 0.101139 237 222 203
-0.035156 0.390625 0.101465 233 218 199
-0.031250 0.390625 0.101770 228 211 193
-0.027344 0.390625 0.101948 227 210 194
-0.023438 0.390625 0.102092 235 218 202
-0.019531 0.390625 0.102057 243 225 211
-0.015625 0.390625 0.101954 241 225 210
-0.011719 0.390625 0.101695 237 221 206
-0.007812 0.390625 0.101487 235 219 206
-0.003906 0.390625 0.101027 248 231 223
0.000000 0.390625 0.100653 242 225 217
0.003906 0.390625 0.100431 234 217 210
0.007812 0.390625 0.100099 224 209 202
0.011719 0.390625 0.099748 220 205 198
0.015625 0.390625 0.099255 224 211 203
0.019531 0.390625 0.098972 233 222 216
0.023438 0.390625 0.098603 242 233 226
0.027344 0.390625 0.098072 247 240 234
0.031250 0.390625 0.097670 248 243 237
0.035156 0.390625 0.097306 247 244 239
0.039062 0.390625 0.096918 243 242 237
0.042969 0.390625 0.096563 243 242 237
0.046875 0.390625 0.096106 244 245 239
0.050781 0.390625 0.095600 242 243 238
0.054688 0.390625 0.095148 237 238 233
0.058594 0.390625 0.094591 238 238 236
0.062500 0.390625 0.093916 240 239 237
0.066406 0.390625 0.093282 243 238 235
0.070312 0.390625 0.092595 243 232 230
0.074219 0.390625 0.091753 240 222 218
0.078125 0.390625 0.091023 236 212 208
0.082031 0.390625 0.090202 236 206 204
0.085938 0.390625 0.089134 236 205 202
0.089844 0.390625 0.088086 249 218 215
0.093750 0.390625 0.086964 237 207 205
0.097656 0.390625 0.085754 232 206 207
0.101562 0.390625 0.084509 242 224 224
0.105469 0.390625 0.083345 249 237 239
0.109375 0.390625 0.081848 241 235 239
0.113281 0.390625 0.080439 227 225 230
0.117188 0.390625 0.078738 220 218 223
0.121094 0.390625 0.076746 243 240 244
0.125000 0.390625 0.074325 241 235 237
0.128906 0.390625 0.071886 244 236 239
0.132812 0.390625 0.068791 244 237 240
0.136719 0.390625 0.065183 243 237 239
0.140625 0.390625 0.060814 244 239 240
0.144531 0.390625 0.055755 242 239 239
0.148438 0.390625 0.050075 238 236 236
0.152344 0.390625 0.043250 237 236 236
0.156250 0.390625 0.035794 234 234 234
0.160156 0.390625 0.026866 231 230 230
0.164062 0.390625 0.016841 228 228 228
0.167969 0.390625 0.005073 226 226 226
0.171875 0.390625 -0.007410 227 227 227
0.175781 0.390625 -0.018701 232 232 232
0.179688 0.390625 -0.027440 238 238 238
0.183594 0.390625 -0.033957 243 243 243
0.187500 0.390625 -0.039080 244 243 243
0.191406 0.390625 -0.042570 240 237 239
0.195312 0.390625 -0.044913 239 230 233
0.199219 0.390625 -0.046617 228 210 215
0.203125 0.390625 -0.048149 214 185 190
0.207031 0.390625 -0.049889 219 187 185
0.210938 0.390625 -0.052856 227 195 186
0.214844 0.390625 -0.056260 232 197 178
0.218750 0.390625 -0.059801 232 190 163
0.222656 0.390625 -0.063151 234 190 159
0.226562 0.390625 -0.073133 233 193 161
-0.218750 0.386719 -0.045720 202 181 162
-0.214844 0.386719 -0.047563 204 170 139
-0.210938 0.386719 -0.038503 192 148 116
-0.207031 0.386719 -0.033944 200 155 123
-0.203125 0.386719 -0.031615 203 158 127
-0.199219 0.386719 -0.028860 204 159 130
-0.195312 0.386719 -0.027591 208 163 134
-0.191406 0.386719 -0.025870 208 163 136
-0.187500 0.386719 -0.024520 210 167 140
-0.183594 0.386719 -0.023049 209 167 141
-0.179688 0.386719 -0.022165 207 166 140
-0.175781 0.386719 -0.021432 205 164 140
-0.171875 0.386719 -0.020857 197 158 135
-0.167969 0.386719 -0.020488 189 152 131
-0.164062 0.386719 -0.020674 182 148 131
-0.160156 0.386719 -0.021374 168 144 131
-0.156250 0.386719 -0.022763 161 142 136
-0.152344 0.386719 -0.022613 171 153 153
-0.148438 0.386719 -0.019056 217 202 205
-0.144531 0.386719 -0.009522 238 236 236
-0.140625 0.386719 0.002972 236 235 235
-0.136719 0.386719 0.013589 225 224 224
-0.132812 0.386719 0.022120 210 209 208
-0.128906 0.386719 0.028877 215 212 211
-0.125000 0.386719 0.035054 228 224 221
-0.121094 0.386719 0.041005 225 224 223
-0.117188 0.386719 0.047098 224 224 222
-0.113281 0.386719 0.053001 226 226 228
-0.109375 0.386719 0.058689 226 227 229
-0.105469 0.386719 0.063775 225 229 231
-0.101562 0.386719 0.067998 227 232 235
-0.097656 0.386719 0.071947 223 228 231
-0.093750 0.386719 0.075523 225 233 235
-0.089844 0.386719 0.078912 233 239 239
-0.085938 0.386719 0.081945 236 242 240
-0.082031 0.386719 0.084854 239 243 242
-0.078125 0.386719 0.087520 240 245 241
-0.074219 0.386719 0.089801 243 245 240
-0.070312 0.386719 0.091788 245 246 240
-0.066406 0.386719 0.093612 249 250 244
-0.062500 0.386719 0.095191 246 246 236
-0.058594 0.386719 0.096568 244 241 232
-0.054688 0.386719 0.097805 244 240 228
-0.050781 0.386719 0.098830 248 242 230
-0.046875 0.386719 0.099582 248 240 227
-0.042969 0.386719 0.100342 248 236 222
-0.039062 0.386719 0.100874 244 231 215
-0.035156 0.386719 0.101303 240 227 211
-0.031250 0.386719 0.101653 233 217 201
-0.027344 0.386719 0.101878 228 212 197
-0.023438 0.386719 0.102042 234 218 203
-0.019531 0.386719 0.102019 242 226 213
-0.015625 0.386719 0.101933 240 226 213
-0.011719 0.386719 0.101661 236 222 209
-0.007812 0.386719 0.101553 235 218 208
-0.003906 0.386719 0.101162 247 230 223
0.000000 0.386719 0.100878 240 223 216
0.003906 0.386719 0.100621 231 213 209
0.007812 0.386719 0.100317 223 208 203
0.011719 0.386719 0.099971 225 210 205
0.015625 0.386719 0.099626 230 217 211
0.019531 0.386719 0.099274 232 221 215
0.023438 0.386719 0.098908 232 223 216
0.027344 0.386719 0.098359 242 235 229
0.031250 0.386719 0.098117 245 240 234
0.035156 0.386719 0.097650 246 243 236
0.039062 0.386719 0.097261 242 242 234
0.042969 0.386719 0.096956 242 242 234
0.046875 0.386719 0.096462 243 244 236
0.050781 0.386719 0.096007 242 243 237
0.054688 0.386719 0.095450 237 240 233
0.058594 0.386719 0.094888 237 239 234
0.062500 0.386719 0.094260 239 240 235
0.066406 0.386719 0.093542 244 236 233
0.070312 0.386719 0.092754 245 230 227
0.074219 0.386719 0.091971 244 219 215
0.078125 0.386719 0.091093 239 205 203
0.082031 0.386719 0.090291 234 193 191
0.085938 0.386719 0.089335 232 186 186
0.089844 0.386719 0.088269 234 188 188
0.093750 0.386719 0.087143 228 186 187
0.097656 0.386719 0.086023 233 197 199
0.101562 0.386719 0.084806 246 220 223
0.105469 0.386719 0.083552 250 234 237
0.109375 0.386719 0.082103 240 231 236
0.113281 0.386719 0.080628 225 224 229
0.117188 0.386719 0.078823 219 219 223
0.121094 0.386719 0.076900 240 237 240
0.125000 0.386719 0.074572 238 231 233
0.128906 0.386719 0.071988 242 234 237
0.132812 0.386719 0.068924 243 235 238
0.136719 0.386719 0.065343 242 235 237
0.140625 0.386719 0.061001 243 238 240
0.144531 0.386719 0.056057 241 238 239
0.148438 0.386719 0.050409 238 236 237
0.152344 0.386719 0.043590 238 237 237
0.156250 0.386719 0.036131 235 235 235
0.160156 0.386719 0.027113 233 233 233
0.164062 0.386719 0.016765 231 231 231
0.167969 0.386719 0.004392 229 229 229
0.171875 0.386719 -0.008759 228 228 228
0.175781 0.386719 -0.020406 228 228 228
0.179688 0.386719 -0.028994 230 230 230
0.183594 0.386719 -0.034907 233 233 233
0.187500 0.386719 -0.039490 233 233 233
0.191406 0.386719 -0.042822 230 230 230
0.195312 0.386719 -0.045133 228 226 227
0.199219 0.386719 -0.046693 224 217 220
0.203125 0.386719 -0.047893 221 208 211
0.207031 0.386719 -0.049520 223 206 205
0.210938 0.386719 -0.052064 228 206 201
0.214844 0.386719 -0.055159 232 203 191
0.218750 0.386719 -0.058799 234 199 180
0.222656 0.386719 -0.061821 239 207 184
0.226562 0.386719 -0.068842 240 215 190
0.230469 0.386719 -0.075235 236 216 198
-0.218750 0.382812 -0.046950 200 178 160
-0.214844 0.382812 -0.047742 203 167 137
-0.210938 0.382812 -0.039128 193 147 117
-0.207031 0.382812 -0.034526 201 156 124
-0.203125 0.382812 -0.032114 203 158 128
-0.199219 0.382812 -0.029426 204 159 130
-0.195312 0.382812 -0.028217 207 163 135
-0.191406 0.382812 -0.026547 208 163 136
-0.187500 0.382812 -0.025354 209 166 139
-0.183594 0.382812 -0.023994 209 166 140
-0.179688 0.382812 -0.023169 206 164 139
-0.175781 0.382812 -0.022560 204 163 139
-0.171875 0.382812 -0.021973 197 158 135
-0.167969 0.382812 -0.021649 189 151 131
-0.164062 0.382812 -0.022009 184 150 133
-0.160156 0.382812 -0.022887 174 150 138
-0.156250 0.382812 -0.024451 168 150 144
-0.152344 0.382812 -0.023984 180 163 161
-0.148438 0.382812 -0.019444 218 202 206
-0.144531 0.382812 -0.008790 236 234 234
-0.140625 0.382812 0.003888 233 232 232
-0.136719 0.382812 0.014361 221 220 220
-0.132812 0.382812 0.022582 208 207 206
-0.128906 0.382812 0.029071 216 213 213
-0.125000 0.382812 0.035108 229 226 223
-0.121094 0.382812 0.040954 226 225 223
-0.117188 0.382812 0.046965 224 224 224
-0.113281 0.382812 0.052835 225 226 228
-0.109375 0.382812 0.058366 223 227 228
-0.105469 0.382812 0.063356 224 229 232
-0.101562 0.382812 0.067662 227 232 235
-0.097656 0.382812 0.071557 218 226 228
-0.093750 0.382812 0.075056 222 230 232
-0.089844 0.382812 0.078478 230 236 236
-0.085938 0.382812 0.081502 235 241 241
-0.082031 0.382812 0.084400 238 242 241
-0.078125 0.382812 0.087014 240 245 241
-0.074219 0.382812 0.089296 244 246 241
-0.070312 0.382812 0.091445 246 248 243
-0.066406 0.382812 0.093252 250 252 247
-0.062500 0.382812 0.094818 247 248 242
-0.058594 0.382812 0.096200 244 244 236
-0.054688 0.382812 0.097437 245 242 233
-0.050781 0.382812 0.098449 247 243 232
-0.046875 0.382812 0.099413 250 244 232
-0.042969 0.382812 0.100021 251 241 229
-0.039062 0.382812 0.100715 251 239 225
-0.035156 0.382812 0.101033 248 236 222
-0.031250 0.382812 0.101478 241 227 214
-0.027344 0.382812 0.101762 238 222 209
-0.023438 0.382812 0.102000 238 224 213
-0.019531 0.382812 0.102024 242 228 217
-0.015625 0.382812 0.101972 240 226 215
-0.011719 0.382812 0.101761 238 224 213
-0.007812 0.382812 0.101625 238 224 215
-0.003906 0.382812 0.101396 244 226 222
0.000000 0.382812 0.101087 240 221 217
0.003906 0.382812 0.100909 231 213 211
0.007812 0.382812 0.100602 228 210 206
0.011719 0.382812 0.100293 229 214 209
0.015625 0.382812 0.100020 233 220 214
0.019531 0.382812 0.099571 230 217 211
0.023438 0.382812 0.099262 220 211 204
0.027344 0.382812 0.098746 236 229 223
0.031250 0.382812 0.098490 240 237 230
0.035156 0.382812 0.098044 243 240 233
0.039062 0.382812 0.097712 240 240 232
0.042969 0.382812 0.097267 239 240 232
0.046875 0.382812 0.096855 241 243 232
0.050781 0.382812 0.096413 240 243 234
0.054688 0.382812 0.095859 237 240 231
0.058594 0.382812 0.095216 233 238 231
0.062500 0.382812 0.094549 235 236 230
0.066406 0.382812 0.093771 239 232 226
0.070312 0.382812 0.093004 245 226 222
0.074219 0.382812 0.092201 246 215 212
0.078125 0.382812 0.091266 242 198 197
0.082031 0.382812 0.090497 230 179 178
0.085938 0.382812 0.089422 220 164 165
0.089844 0.382812 0.088520 209 153 154
0.093750 0.382812 0.087337 211 159 161
0.097656 0.382812 0.086231 224 179 182
0.101562 0.382812 0.085085 241 209 212
0.105469 0.382812 0.083696 246 225 230
0.109375 0.382812 0.082252 234 225 228
0.113281 0.382812 0.080860 223 222 227
0.117188 0.382812 0.078978 219 222 225
0.121094 0.382812 0.077021 235 233 236
0.125000 0.382812 0.074717 231 225 227
0.128906 0.382812 0.072132 238 230 233
0.132812 0.382812 0.068998 239 231 234
0.136719 0.382812 0.065460 239 231 234
0.140625 0.382812 0.061244 242 237 238
0.144531 0.382812 0.056397 241 238 239
0.148438 0.382812 0.050773 239 237 238
0.152344 0.382812 0.044041 238 238 238
0.156250 0.382812 0.036615 237 236 236
0.160156 0.382812 0.027538 235 235 235
0.164062 0.382812 0.016883 234 234 234
0.167969 0.382812 0.003953 233 233 233
0.171875 0.382812 -0.009930 232 232 232
0.175781 0.382812 -0.022077 231 231 231
0.179688 0.382812 -0.030589 230 230 230
0.183594 0.382812 -0.036004 230 230 230
0.187500 0.382812 -0.040112 228 228 228
0.191406 0.382812 -0.042998 226 225 225
0.195312 0.382812 -0.044952 224 223 223
0.199219 0.382812 -0.046361 222 221 221
0.203125 0.382812 -0.047512 221 217 217
0.207031 0.382812 -0.049053 221 212 211
0.210938 0.382812 -0.051365 214 196 190
0.214844 0.382812 -0.054041 217 184 175
0.218750 0.382812 -0.057922 232 201 186
0.222656 0.382812 -0.060680 241 219 203
0.226562 0.382812 -0.065271 246 232 216
0.230469 0.382812 -0.075000 244 232 219
-0.218750 0.378906 -0.048621 198 174 156
-0.214844 0.378906 -0.047555 201 164 134
-0.210938 0.378906 -0.039618 193 148 118
-0.207031 0.378906 -0.035109 201 157 126
-0.203125 0.378906 -0.032604 204 160 130
-0.199219 0.378906 -0.029914 205 159 131
-0.195312 0.378906 -0.028853 208 163 136
-0.191406 0.378906 -0.027274 208 163 136
-0.187500 0.378906 -0.026105 209 165 139
-0.183594 0.378906 -0.024804 210 166 141
-0.179688 0.378906 -0.024109 206 163 138
-0.175781 0.378906 -0.023545 204 162 138
-0.171875 0.378906 -0.023009 198 159 136
-0.167969 0.378906 -0.022847 189 151 132
-0.164062 0.378906 -0.023358 187 154 136
-0.160156 0.378906 -0.024444 180 156 144
-0.156250 0.378906 -0.026037 172 155 151
-0.152344 0.378906 -0.025037 188 173 171
-0.148438 0.378906 -0.019420 223 207 210
-0.144531 0.378906 -0.007738 235 233 233
-0.140625 0.378906 0.004933 231 231 231
-0.136719 0.378906 0.015019 220 220 220
-0.132812 0.378906 0.022948 209 208 207
-0.128906 0.378906 0.029287 219 218 217
-0.125000 0.378906 0.035223 232 228 226
-0.121094 0.378906 0.040893 227 226 224
-0.117188 0.378906 0.046843 225 225 225
-0.113281 0.378906 0.052592 225 226 228
-0.109375 0.378906 0.058099 224 228 229
-0.105469 0.378906 0.063028 225 230 233
-0.101562 0.378906 0.067212 226 234 236
-0.097656 0.378906 0.071120 212 220 222
-0.093750 0.378906 0.074702 217 225 227
-0.089844 0.378906 0.078117 223 232 231
-0.085938 0.378906 0.081071 229 238 237
-0.082031 0.378906 0.084004 234 240 238
-0.078125 0.378906 0.086559 237 243 239
-0.074219 0.378906 0.088825 240 245 239
-0.070312 0.378906 0.090976 242 247 241
-0.066406 0.378906 0.092815 245 250 246
-0.062500 0.378906 0.094360 245 247 244
-0.058594 0.378906 0.095839 245 246 241
-0.054688 0.378906 0.097018 245 244 239
-0.050781 0.378906 0.098126 249 244 238
-0.046875 0.378906 0.099061 251 244 236
-0.042969 0.378906 0.099764 251 243 232
-0.039062 0.378906 0.100416 252 242 230
-0.035156 0.378906 0.100982 253 241 229
-0.031250 0.378906 0.101350 249 237 225
-0.027344 0.378906 0.101608 248 234 223
-0.023438 0.378906 0.101865 249 235 226
-0.019531 0.378906 0.101939 247 233 224
-0.015625 0.378906 0.101952 242 229 220
-0.011719 0.378906 0.101847 242 229 220
-0.007812 0.378906 0.101759 246 231 224
-0.003906 0.378906 0.101545 245 227 225
0.000000 0.378906 0.101337 246 226 225
0.003906 0.378906 0.101105 241 223 223
0.007812 0.378906 0.100765 235 217 215
0.011719 0.378906 0.100497 233 218 215
0.015625 0.378906 0.100257 234 220 217
0.019531 0.378906 0.099888 230 216 213
0.023438 0.378906 0.099614 218 209 204
0.027344 0.378906 0.099158 230 223 215
0.031250 0.378906 0.098888 235 232 223
0.035156 0.378906 0.098479 240 237 228
0.039062 0.378906 0.098104 238 238 228
0.042969 0.378906 0.097713 237 239 228
0.046875 0.378906 0.097240 239 241 228
0.050781 0.378906 0.096787 239 242 231
0.054688 0.378906 0.096260 237 240 229
0.058594 0.378906 0.095566 233 238 231
0.062500 0.378906 0.094802 232 233 227
0.066406 0.378906 0.094045 237 228 221
0.070312 0.378906 0.093268 245 224 219
0.074219 0.378906 0.092357 253 215 212
0.078125 0.378906 0.091460 245 195 194
0.082031 0.378906 0.090770 228 168 168
0.085938 0.378906 0.089600 213 148 149
0.089844 0.378906 0.088738 199 134 135
0.093750 0.378906 0.087640 202 141 143
0.097656 0.378906 0.086497 214 164 167
0.101562 0.378906 0.085394 234 195 198
0.105469 0.378906 0.083951 239 217 220
0.109375 0.378906 0.082486 231 220 224
0.113281 0.378906 0.081039 220 219 224
0.117188 0.378906 0.079229 217 219 223
0.121094 0.378906 0.077112 232 230 233
0.125000 0.378906 0.074761 228 222 224
0.128906 0.378906 0.072305 234 226 229
0.132812 0.378906 0.069193 235 226 229
0.136719 0.378906 0.065677 236 228 231
0.140625 0.378906 0.061472 241 235 237
0.144531 0.378906 0.056719 240 237 238
0.148438 0.378906 0.051211 239 237 238
0.152344 0.378906 0.044578 239 238 238
0.156250 0.378906 0.037223 238 237 237
0.160156 0.378906 0.028120 237 237 237
0.164062 0.378906 0.017367 237 237 237
0.167969 0.378906 0.003894 236 236 236
0.171875 0.378906 -0.010747 235 235 235
0.175781 0.378906 -0.023489 233 233 233
0.179688 0.378906 -0.032114 231 231 231
0.183594 0.378906 -0.037170 230 229 229
0.187500 0.378906 -0.040903 227 227 227
0.191406 0.378906 -0.043337 225 224 225
0.195312 0.378906 -0.044930 221 221 221
0.199219 0.378906 -0.046205 217 217 217
0.203125 0.378906 -0.047282 216 215 215
0.207031 0.378906 -0.048821 215 213 213
0.210938 0.378906 -0.050899 204 198 196
0.214844 0.378906 -0.053177 205 188 180
0.218750 0.378906 -0.056898 226 205 191
0.222656 0.378906 -0.059549 236 213 199
0.226562 0.378906 -0.062755 240 221 208
0.230469 0.378906 -0.072895 232 211 201
-0.218750 0.375000 -0.050683 190 163 145
-0.214844 0.375000 -0.046955 198 161 132
-0.210938 0.375000 -0.039840 194 151 121
-0.207031 0.375000 -0.035617 202 158 128
-0.203125 0.375000 -0.032978 205 160 131
-0.199219 0.375000 -0.030431 205 160 132
-0.195312 0.375000 -0.029543 208 164 137
-0.191406 0.375000 -0.028013 209 164 138
-0.187500 0.375000 -0.026893 211 166 141
-0.183594 0.375000 -0.025690 211 168 143
-0.179688 0.375000 -0.025046 207 164 139
-0.175781 0.375000 -0.024551 204 161 137
-0.171875 0.375000 -0.024013 199 159 136
-0.167969 0.375000 -0.023893 189 151 132
-0.164062 0.375000 -0.024611 186 152 136
-0.160156 0.375000 -0.025949 177 150 142
-0.156250 0.375000 -0.027438 158 136 140
-0.152344 0.375000 -0.025876 172 155 158
-0.148438 0.375000 -0.019127 221 208 210
-0.144531 0.375000 -0.006580 234 232 232
-0.140625 0.375000 0.005976 229 229 229
-0.136719 0.375000 0.015705 219 218 218
-0.132812 0.375000 0.023263 209 209 209
-0.128906 0.375000 0.029514 221 221 219
-0.125000 0.375000 0.035306 233 232 230
-0.121094 0.375000 0.040886 228 228 226
-0.117188 0.375000 0.046728 225 227 226
-0.113281 0.375000 0.052401 226 228 227
-0.109375 0.375000 0.057807 225 229 230
-0.105469 0.375000 0.062701 226 232 232
-0.101562 0.375000 0.066851 230 236 236
-0.097656 0.375000 0.070730 208 214 214
-0.093750 0.375000 0.074291 213 219 219
-0.089844 0.375000 0.077632 220 226 226
-0.085938 0.375000 0.080689 226 232 230
-0.082031 0.375000 0.083589 231 235 234
-0.078125 0.375000 0.086086 234 239 235
-0.074219 0.375000 0.088477 238 240 237
-0.070312 0.375000 0.090566 240 242 239
-0.066406 0.375000 0.092365 243 245 242
-0.062500 0.375000 0.094061 244 246 243
-0.058594 0.375000 0.095459 246 246 244
-0.054688 0.375000 0.096612 248 247 243
-0.050781 0.375000 0.097842 249 246 241
-0.046875 0.375000 0.098777 249 244 238
-0.042969 0.375000 0.099552 248 244 235
-0.039062 0.375000 0.100228 250 243 233
-0.035156 0.375000 0.100748 251 242 233
-0.031250 0.375000 0.101155 251 243 232
-0.027344 0.375000 0.101533 254 244 235
-0.023438 0.375000 0.101800 254 245 236
-0.019531 0.375000 0.101910 249 240 231
-0.015625 0.375000 0.101964 243 234 225
-0.011719 0.375000 0.101931 243 234 225
-0.007812 0.375000 0.101847 249 238 232
-0.003906 0.375000 0.101727 246 231 228
0.000000 0.375000 0.101519 253 235 233
0.003906 0.375000 0.101317 249 234 231
0.007812 0.375000 0.101052 242 227 224
0.011719 0.375000 0.100785 237 222 219
0.015625 0.375000 0.100562 236 222 219
0.019531 0.375000 0.100201 231 220 216
0.023438 0.375000 0.099868 224 215 210
0.027344 0.375000 0.099575 226 219 211
0.031250 0.375000 0.099250 232 228 219
0.035156 0.375000 0.098833 238 235 226
0.039062 0.375000 0.098489 236 236 226
0.042969 0.375000 0.098119 236 236 226
0.046875 0.375000 0.097628 239 239 229
0.050781 0.375000 0.097123 239 241 230
0.054688 0.375000 0.096537 237 240 229
0.058594 0.375000 0.095912 235 241 231
0.062500 0.375000 0.095137 234 234 226
0.066406 0.375000 0.094267 238 227 221
0.070312 0.375000 0.093498 249 224 220
0.074219 0.375000 0.092614 254 217 215
0.078125 0.375000 0.091790 251 195 196
0.082031 0.375000 0.090885 232 163 166
0.085938 0.375000 0.089867 212 139 143
0.089844 0.375000 0.089034 203 130 135
0.093750 0.375000 0.087921 204 134 139
0.097656 0.375000 0.086774 213 154 160
0.101562 0.375000 0.085629 231 186 191
0.105469 0.375000 0.084176 240 211 215
0.109375 0.375000 0.082742 232 217 220
0.113281 0.375000 0.081216 222 218 219
0.117188 0.375000 0.079372 216 217 217
0.121094 0.375000 0.077337 236 234 235
0.125000 0.375000 0.074948 232 226 228
0.128906 0.375000 0.072414 235 226 230
0.132812 0.375000 0.069339 234 225 228
0.136719 0.375000 0.065858 235 226 229
0.140625 0.375000 0.061792 240 234 235
0.144531 0.375000 0.056997 241 237 238
0.148438 0.375000 0.051539 239 238 238
0.152344 0.375000 0.045124 240 239 239
0.156250 0.375000 0.037934 239 238 239
0.160156 0.375000 0.028910 238 238 238
0.164062 0.375000 0.018157 239 239 239
0.167969 0.375000 0.004175 238 238 238
0.171875 0.375000 -0.011297 237 237 237
0.175781 0.375000 -0.024686 235 235 235
0.179688 0.375000 -0.033459 232 232 232
0.183594 0.375000 -0.038348 230 230 230
0.187500 0.375000 -0.041600 228 228 228
0.191406 0.375000 -0.043822 227 227 227
0.195312 0.375000 -0.045081 223 223 223
0.199219 0.375000 -0.046225 218 217 218
0.203125 0.375000 -0.047113 214 214 214
0.207031 0.375000 -0.048439 213 213 213
0.210938 0.375000 -0.050408 209 208 207
0.214844 0.375000 -0.052447 205 202 201
0.218750 0.375000 -0.056039 215 204 202
0.222656 0.375000 -0.058785 218 191 193
0.226562 0.375000 -0.061057 213 166 173
0.230469 0.375000 -0.069788 203 159 169
-0.222656 0.371094 -0.030537 163 144 142
-0.218750 0.371094 -0.052665 182 151 136
-0.214844 0.371094 -0.046051 193 155 129
-0.210938 0.371094 -0.040083 195 152 124
-0.207031 0.371094 -0.036080 203 159 130
-0.203125 0.371094 -0.033382 206 161 133
-0.199219 0.371094 -0.030956 206 161 133
-0.195312 0.371094 -0.030151 209 165 138
-0.191406 0.371094 -0.028792 211 165 139
-0.187500 0.371094 -0.027683 212 167 142
-0.183594 0.371094 -0.026579 213 169 143
-0.179688 0.371094 -0.025913 207 162 138
-0.175781 0.371094 -0.025525 202 157 135
-0.171875 0.371094 -0.025032 197 156 135
-0.167969 0.371094 -0.024979 187 149 132
-0.164062 0.371094 -0.025806 183 150 137
-0.160156 0.371094 -0.027460 176 151 146
-0.156250 0.371094 -0.028756 150 130 135
-0.152344 0.371094 -0.026418 175 160 163
-0.148438 0.371094 -0.018409 228 221 222
-0.144531 0.371094 -0.005211 234 233 233
-0.140625 0.371094 0.007058 228 227 227
-0.136719 0.371094 0.016421 217 217 217
-0.132812 0.371094 0.023551 209 209 209
-0.128906 0.371094 0.029704 218 220 217
-0.125000 0.371094 0.035358 235 237 234
-0.121094 0.371094 0.040857 231 233 230
-0.117188 0.371094 0.046627 223 225 222
-0.113281 0.371094 0.052161 222 224 221
-0.109375 0.371094 0.057473 224 226 225
-0.105469 0.371094 0.062402 223 225 224
-0.101562 0.371094 0.066486 219 221 220
-0.097656 0.371094 0.070303 212 214 213
-0.093750 0.371094 0.073926 217 219 218
-0.089844 0.371094 0.077176 222 222 222
-0.085938 0.371094 0.080222 224 224 222
-0.082031 0.371094 0.083111 224 224 222
-0.078125 0.371094 0.085691 227 227 225
-0.074219 0.371094 0.088033 236 235 233
-0.070312 0.371094 0.090160 242 241 239
-0.066406 0.371094 0.092018 235 235 233
-0.062500 0.371094 0.093631 243 243 241
-0.058594 0.371094 0.095092 249 249 247
-0.054688 0.371094 0.096357 247 248 243
-0.050781 0.371094 0.097509 244 243 239
-0.046875 0.371094 0.098423 244 243 238
-0.042969 0.371094 0.099288 245 244 239
-0.039062 0.371094 0.100017 244 244 236
-0.035156 0.371094 0.100531 248 245 238
-0.031250 0.371094 0.101052 249 246 239
-0.027344 0.371094 0.101394 249 246 237
-0.023438 0.371094 0.101683 249 246 237
-0.019531 0.371094 0.101907 248 245 236
-0.015625 0.371094 0.101979 246 243 234
-0.011719 0.371094 0.102037 244 241 232
-0.007812 0.371094 0.102000 244 240 231
-0.003906 0.371094 0.101891 248 237 231
0.000000 0.371094 0.101792 247 234 228
0.003906 0.371094 0.101588 246 233 227
0.007812 0.371094 0.101374 245 234 228
0.011719 0.371094 0.101128 245 234 228
0.015625 0.371094 0.100830 240 229 223
0.019531 0.371094 0.100542 235 226 219
0.023438 0.371094 0.100125 232 223 216
0.027344 0.371094 0.099948 232 225 219
0.031250 0.371094 0.099595 228 223 217
0.035156 0.371094 0.099182 244 239 233
0.039062 0.371094 0.098829 246 243 236
0.042969 0.371094 0.098441 233 230 223
0.046875 0.371094 0.098018 239 236 229
0.050781 0.371094 0.097482 247 244 237
0.054688 0.371094 0.096881 232 232 224
0.058594 0.371094 0.096204 235 236 228
0.062500 0.371094 0.095400 236 233 226
0.066406 0.371094 0.094602 239 224 219
0.070312 0.371094 0.093749 243 213 211
0.074219 0.371094 0.092866 253 204 207
0.078125 0.371094 0.092052 254 190 196
0.082031 0.371094 0.091159 240 163 173
0.085938 0.371094 0.090124 222 138 148
0.089844 0.371094 0.089256 203 119 130
0.093750 0.371094 0.088147 205 124 136
0.097656 0.371094 0.086993 219 152 161
0.101562 0.371094 0.085857 239 184 190
0.105469 0.371094 0.084364 239 200 203
0.109375 0.371094 0.082839 235 211 211
0.113281 0.371094 0.081492 227 216 214
0.117188 0.371094 0.079579 215 210 207
0.121094 0.371094 0.077536 232 229 228
0.125000 0.371094 0.075147 238 232 235
0.128906 0.371094 0.072650 238 229 233
0.132812 0.371094 0.069465 235 225 229
0.136719 0.371094 0.065979 238 229 232
0.140625 0.371094 0.062053 239 232 234
0.144531 0.371094 0.057397 236 233 234
0.148438 0.371094 0.052005 241 239 240
0.152344 0.371094 0.045769 241 240 240
0.156250 0.371094 0.038762 240 239 240
0.160156 0.371094 0.029876 240 240 240
0.164062 0.371094 0.019181 240 240 240
0.167969 0.371094 0.004802 240 240 240
0.171875 0.371094 -0.011410 239 239 239
0.175781 0.371094 -0.025430 237 237 237
0.179688 0.371094 -0.034607 234 234 234
0.183594 0.371094 -0.039338 231 231 231
0.187500 0.371094 -0.042355 229 229 229
0.191406 0.371094 -0.044317 229 228 228
0.195312 0.371094 -0.045344 225 225 225
0.199219 0.371094 -0.046377 220 220 220
0.203125 0.371094 -0.047058 215 215 215
0.207031 0.371094 -0.048158 213 213 213
0.210938 0.371094 -0.050021 212 212 212
0.214844 0.371094 -0.052071 215 214 214
0.218750 0.371094 -0.055400 221 220 220
0.222656 0.371094 -0.058277 220 216 217
0.226562 0.371094 -0.059979 209 196 200
0.230469 0.371094 -0.066688 203 181 191
0.234375 0.371094 -0.072613 207 188 198
-0.222656 0.367188 -0.035476 202 191 178
-0.218750 0.367188 -0.053779 183 152 131
-0.214844 0.367188 -0.045038 192 152 125
-0.210938 0.367188 -0.040298 197 154 126
-0.207031 0.367188 -0.036597 204 160 131
-0.203125 0.367188 -0.033782 207 162 134
-0.199219 0.367188 -0.031531 207 162 135
-0.195312 0.367188 -0.030832 210 166 140
-0.191406 0.367188 -0.029512 212 167 141
-0.187500 0.367188 -0.028393 213 168 143
-0.183594 0.367188 -0.027412 213 169 144
-0.179688 0.367188 -0.026804 208 163 139
-0.175781 0.367188 -0.026445 203 158 137
-0.171875 0.367188 -0.025985 200 159 139
-0.167969 0.367188 -0.026023 191 155 138
-0.164062 0.367188 -0.027039 186 154 143
-0.160156 0.367188 -0.028753 180 158 153
-0.156250 0.367188 -0.029784 153 133 138
-0.152344 0.367188 -0.026695 197 183 186
-0.148438 0.367188 -0.017308 233 228 229
-0.144531 0.367188 -0.003620 233 232 232
-0.140625 0.367188 0.008066 224 223 223
-0.136719 0.367188 0.017034 214 214 214
-0.132812 0.367188 0.023822 208 208 208
-0.128906 0.367188 0.029831 222 223 221
-0.125000 0.367188 0.035453 233 238 234
-0.121094 0.367188 0.040861 230 232 229
-0.117188 0.367188 0.046582 222 224 221
-0.113281 0.367188 0.052012 222 224 221
-0.109375 0.367188 0.057275 225 227 224
-0.105469 0.367188 0.062009 223 223 221
-0.101562 0.367188 0.066162 217 217 215
-0.097656 0.367188 0.069949 209 209 207
-0.093750 0.367188 0.073458 213 213 211
-0.089844 0.367188 0.076882 218 217 215
-0.085938 0.367188 0.079931 221 220 218
-0.082031 0.367188 0.082694 224 223 221
-0.078125 0.367188 0.085336 227 226 224
-0.074219 0.367188 0.087695 234 230 229
-0.070312 0.367188 0.089780 236 235 233
-0.066406 0.367188 0.091652 238 237 235
-0.062500 0.367188 0.093264 241 241 239
-0.058594 0.367188 0.094731 242 242 240
-0.054688 0.367188 0.096050 240 240 238
-0.050781 0.367188 0.097212 241 242 237
-0.046875 0.367188 0.098137 244 245 240
-0.042969 0.367188 0.099056 244 245 240
-0.039062 0.367188 0.099771 241 242 237
-0.035156 0.367188 0.100400 243 244 238
-0.031250 0.367188 0.100840 243 244 238
-0.027344 0.367188 0.101355 243 244 238
-0.023438 0.367188 0.101633 243 244 236
-0.019531 0.367188 0.101877 242 243 237
-0.015625 0.367188 0.102017 240 241 233
-0.011719 0.367188 0.102052 238 239 231
-0.007812 0.367188 0.102070 238 238 228
-0.003906 0.367188 0.102033 249 242 234
0.000000 0.367188 0.101963 249 239 230
0.003906 0.367188 0.101806 249 239 230
0.007812 0.367188 0.101607 249 240 233
0.011719 0.367188 0.101403 248 239 232
0.015625 0.367188 0.101086 243 234 227
0.019531 0.367188 0.100831 235 226 219
0.023438 0.367188 0.100499 229 222 216
0.027344 0.367188 0.100210 234 227 221
0.031250 0.367188 0.099900 227 222 216
0.035156 0.367188 0.099532 240 235 231
0.039062 0.367188 0.099082 249 244 240
0.042969 0.367188 0.098779 240 235 231
0.046875 0.367188 0.098350 243 238 234
0.050781 0.367188 0.097842 250 245 241
0.054688 0.367188 0.097231 239 236 231
0.058594 0.367188 0.096470 236 236 228
0.062500 0.367188 0.095684 238 233 227
0.066406 0.367188 0.094825 241 223 219
0.070312 0.367188 0.093984 241 210 208
0.074219 0.367188 0.093216 247 198 202
0.078125 0.367188 0.092300 248 183 191
0.082031 0.367188 0.091431 236 159 169
0.085938 0.367188 0.090471 221 137 150
0.089844 0.367188 0.089469 211 124 137
0.093750 0.367188 0.088422 208 128 139
0.097656 0.367188 0.087269 225 155 165
0.101562 0.367188 0.086081 244 189 194
0.105469 0.367188 0.084587 246 205 209
0.109375 0.367188 0.083028 240 214 213
0.113281 0.367188 0.081657 231 216 213
0.117188 0.367188 0.079828 215 206 204
0.121094 0.367188 0.077723 226 223 222
0.125000 0.367188 0.075305 239 234 236
0.128906 0.367188 0.072817 238 227 232
0.132812 0.367188 0.069711 232 221 226
0.136719 0.367188 0.066223 234 225 228
0.140625 0.367188 0.062334 238 232 234
0.144531 0.367188 0.057756 238 234 235
0.148438 0.367188 0.052460 242 240 240
0.152344 0.367188 0.046476 241 241 241
0.156250 0.367188 0.039670 241 240 240
0.160156 0.367188 0.031008 241 241 241
0.164062 0.367188 0.020451 241 241 241
0.167969 0.367188 0.005822 242 242 242
0.171875 0.367188 -0.011077 241 241 241
0.175781 0.367188 -0.025831 240 240 240
0.179688 0.367188 -0.035475 238 238 238
0.183594 0.367188 -0.040205 235 235 235
0.187500 0.367188 -0.043059 232 232 232
0.191406 0.367188 -0.044771 231 231 231
0.195312 0.367188 -0.045671 228 228 228
0.199219 0.367188 -0.046573 224 223 224
0.203125 0.367188 -0.047180 219 219 219
0.207031 0.367188 -0.048095 217 216 216
0.210938 0.367188 -0.049784 217 217 217
0.214844 0.367188 -0.051739 222 222 222
0.218750 0.367188 -0.054913 229 228 228
0.222656 0.367188 -0.057842 231 230 230
0.226562 0.367188 -0.059368 229 227 228
0.230469 0.367188 -0.064608 227 222 225
0.234375 0.367188 -0.073991 219 208 217
-0.222656 0.363281 -0.039767 198 183 169
-0.218750 0.363281 -0.054289 179 145 121
-0.214844 0.363281 -0.044346 193 153 124
-0.210938 0.363281 -0.040528 200 157 128
-0.207031 0.363281 -0.037048 205 161 132
-0.203125 0.363281 -0.034285 208 164 136
-0.199219 0.363281 -0.032104 209 164 137
-0.195312 0.363281 -0.031475 212 168 142
-0.191406 0.363281 -0.030216 214 169 144
-0.187500 0.363281 -0.029201 214 170 145
-0.183594 0.363281 -0.028197 214 169 145
-0.179688 0.363281 -0.027645 210 164 141
-0.175781 0.363281 -0.027356 204 159 139
-0.171875 0.363281 -0.026940 201 161 143
-0.167969 0.363281 -0.027118 192 158 143
-0.164062 0.363281 -0.028270 183 155 145
-0.160156 0.363281 -0.029951 181 161 158
-0.156250 0.363281 -0.030480 157 131 140
-0.152344 0.363281 -0.026450 202 186 191
-0.148438 0.363281 -0.015716 230 225 226
-0.144531 0.363281 -0.001854 226 225 225
-0.140625 0.363281 0.009055 216 215 215
-0.136719 0.363281 0.017489 209 209 209
-0.132812 0.363281 0.023967 207 207 207
-0.128906 0.363281 0.029914 222 223 222
-0.125000 0.363281 0.035530 234 239 235
-0.121094 0.363281 0.040896 228 230 227
-0.117188 0.363281 0.046513 220 222 219
-0.113281 0.363281 0.051846 223 225 222
-0.109375 0.363281 0.056986 227 229 226
-0.105469 0.363281 0.061720 224 224 222
-0.101562 0.363281 0.065818 215 215 213
-0.097656 0.363281 0.069610 209 209 207
-0.093750 0.363281 0.073028 210 210 208
-0.089844 0.363281 0.076409 214 213 211
-0.085938 0.363281 0.079525 219 218 216
-0.082031 0.363281 0.082335 225 224 222
-0.078125 0.363281 0.084859 228 227 225
-0.074219 0.363281 0.087253 230 226 225
-0.070312 0.363281 0.089399 228 227 225
-0.066406 0.363281 0.091202 241 240 238
-0.062500 0.363281 0.092938 241 241 239
-0.058594 0.363281 0.094344 239 239 237
-0.054688 0.363281 0.095727 237 237 235
-0.050781 0.363281 0.096972 240 240 238
-0.046875 0.363281 0.097982 245 245 243
-0.042969 0.363281 0.098842 243 244 239
-0.039062 0.363281 0.099519 238 239 234
-0.035156 0.363281 0.100217 241 242 237
-0.031250 0.363281 0.100811 241 242 237
-0.027344 0.363281 0.101236 240 241 236
-0.023438 0.363281 0.101609 240 241 235
-0.019531 0.363281 0.101841 239 240 235
-0.015625 0.363281 0.102106 237 238 232
-0.011719 0.363281 0.102148 235 236 230
-0.007812 0.363281 0.102243 235 234 229
-0.003906 0.363281 0.102219 242 235 227
0.000000 0.363281 0.102123 243 234 227
0.003906 0.363281 0.102041 244 235 228
0.007812 0.363281 0.101896 244 237 231
0.011719 0.363281 0.101541 245 238 232
0.015625 0.363281 0.101330 241 234 228
0.019531 0.363281 0.101114 232 225 219
0.023438 0.363281 0.100878 223 218 214
0.027344 0.363281 0.100498 225 220 216
0.031250 0.363281 0.100142 216 211 207
0.035156 0.363281 0.099867 226 221 218
0.039062 0.363281 0.099487 240 236 233
0.042969 0.363281 0.099141 239 235 232
0.046875 0.363281 0.098617 238 234 231
0.050781 0.363281 0.098138 241 237 234
0.054688 0.363281 0.097454 239 236 231
0.058594 0.363281 0.096717 237 237 229
0.062500 0.363281 0.095974 239 234 228
0.066406 0.363281 0.095198 241 226 221
0.070312 0.363281 0.094232 240 212 209
0.074219 0.363281 0.093447 241 196 199
0.078125 0.363281 0.092610 240 183 189
0.082031 0.363281 0.091692 235 165 173
0.085938 0.363281 0.090628 226 153 162
0.089844 0.363281 0.089654 217 141 151
0.093750 0.363281 0.088615 213 142 150
0.097656 0.363281 0.087534 226 165 172
0.101562 0.363281 0.086229 247 198 201
0.105469 0.363281 0.084726 251 215 217
0.109375 0.363281 0.083229 245 221 219
0.113281 0.363281 0.081901 231 217 214
0.117188 0.363281 0.079946 212 204 201
0.121094 0.363281 0.077957 216 213 212
0.125000 0.363281 0.075588 239 234 237
0.128906 0.363281 0.073082 237 224 231
0.132812 0.363281 0.069891 228 216 222
0.136719 0.363281 0.066507 231 221 225
0.140625 0.363281 0.062633 238 232 234
0.144531 0.363281 0.058178 241 237 238
0.148438 0.363281 0.052956 242 240 241
0.152344 0.363281 0.047147 242 241 241
0.156250 0.363281 0.040639 242 241 241
0.160156 0.363281 0.032254 242 242 242
0.164062 0.363281 0.022007 243 242 242
0.167969 0.363281 0.007213 243 243 243
0.171875 0.363281 -0.010185 243 243 243
0.175781 0.363281 -0.025684 242 242 242
0.179688 0.363281 -0.036014 240 240 240
0.183594 0.363281 -0.040851 238 238 238
0.187500 0.363281 -0.043610 235 235 235
0.191406 0.363281 -0.045117 233 233 233
0.195312 0.363281 -0.045913 231 231 231
0.199219 0.363281 -0.046664 228 228 228
0.203125 0.363281 -0.047279 225 224 224
0.207031 0.363281 -0.048143 222 222 222
0.210938 0.363281 -0.049786 223 223 223
0.214844 0.363281 -0.051699 227 227 227
0.218750 0.363281 -0.054556 232 232 232
0.222656 0.363281 -0.057413 236 236 236
0.226562 0.363281 -0.059000 238 237 237
0.230469 0.363281 -0.063154 239 237 238
0.234375 0.363281 -0.074440 237 230 236
-0.222656 0.359375 -0.042992 190 170 151
-0.218750 0.359375 -0.054175 175 138 114
-0.214844 0.359375 -0.044133 195 154 124
-0.210938 0.359375 -0.040842 201 158 129
-0.207031 0.359375 -0.037390 206 161 133
-0.203125 0.359375 -0.034735 209 165 137
-0.199219 0.359375 -0.032646 210 165 139
-0.195312 0.359375 -0.032032 213 170 144
-0.191406 0.359375 -0.030855 216 172 147
-0.187500 0.359375 -0.029896 216 172 148
-0.183594 0.359375 -0.028937 215 171 147
-0.179688 0.359375 -0.028487 211 166 143
-0.175781 0.359375 -0.028227 206 162 142
-0.171875 0.359375 -0.027853 203 165 147
-0.167969 0.359375 -0.028177 193 162 148
-0.164062 0.359375 -0.029478 182 159 151
-0.160156 0.359375 -0.030879 187 171 169
-0.156250 0.359375 -0.030856 177 148 157
-0.152344 0.359375 -0.025822 214 198 203
-0.148438 0.359375 -0.013863 229 223 224
-0.144531 0.359375 -0.000159 222 221 221
-0.140625 0.359375 0.010036 213 213 213
-0.136719 0.359375 0.017979 211 211 211
-0.132812 0.359375 0.024084 211 212 212
-0.128906 0.359375 0.029962 226 226 225
-0.125000 0.359375 0.035582 233 238 234
-0.121094 0.359375 0.040859 225 227 224
-0.117188 0.359375 0.046454 218 220 217
-0.113281 0.359375 0.051673 224 226 223
-0.109375 0.359375 0.056767 230 232 229
-0.105469 0.359375 0.061420 227 227 225
-0.101562 0.359375 0.065446 218 218 216
-0.097656 0.359375 0.069240 216 216 214
-0.093750 0.359375 0.072670 214 214 212
-0.089844 0.359375 0.076045 216 215 213
-0.085938 0.359375 0.079051 221 220 218
-0.082031 0.359375 0.081931 227 226 224
-0.078125 0.359375 0.084484 229 228 226
-0.074219 0.359375 0.086851 226 222 221
-0.070312 0.359375 0.088995 219 218 216
-0.066406 0.359375 0.090895 236 235 233
-0.062500 0.359375 0.092570 239 239 237
-0.058594 0.359375 0.094118 242 242 240
-0.054688 0.359375 0.095501 240 240 238
-0.050781 0.359375 0.096702 241 241 239
-0.046875 0.359375 0.097718 243 243 241
-0.042969 0.359375 0.098661 242 243 238
-0.039062 0.359375 0.099412 238 239 234
-0.035156 0.359375 0.100119 240 241 236
-0.031250 0.359375 0.100695 240 241 236
-0.027344 0.359375 0.101142 240 240 238
-0.023438 0.359375 0.101498 239 240 235
-0.019531 0.359375 0.101869 238 238 236
-0.015625 0.359375 0.102076 237 237 235
-0.011719 0.359375 0.102211 236 236 234
-0.007812 0.359375 0.102371 236 235 231
-0.003906 0.359375 0.102350 234 229 223
0.000000 0.359375 0.102281 237 230 224
0.003906 0.359375 0.102218 238 231 225
0.007812 0.359375 0.102076 239 232 226
0.011719 0.359375 0.101825 242 235 229
0.015625 0.359375 0.101497 240 235 231
0.019531 0.359375 0.101338 233 228 224
0.023438 0.359375 0.100948 224 219 215
0.027344 0.359375 0.100698 218 213 209
0.031250 0.359375 0.100455 207 203 200
0.035156 0.359375 0.100195 214 210 207
0.039062 0.359375 0.099834 233 229 226
0.042969 0.359375 0.099396 239 235 232
0.046875 0.359375 0.098892 232 231 227
0.050781 0.359375 0.098466 234 230 229
0.054688 0.359375 0.097690 237 236 232
0.058594 0.359375 0.096963 236 235 230
0.062500 0.359375 0.096219 238 235 228
0.066406 0.359375 0.095360 241 228 222
0.070312 0.359375 0.094554 240 216 214
0.074219 0.359375 0.093739 237 201 201
0.078125 0.359375 0.092885 236 190 192
0.082031 0.359375 0.092027 238 181 187
0.085938 0.359375 0.090972 239 178 183
0.089844 0.359375 0.089976 230 168 173
0.093750 0.359375 0.088903 221 162 166
0.097656 0.359375 0.087666 228 178 181
0.101562 0.359375 0.086436 246 204 206
0.105469 0.359375 0.084891 250 220 220
0.109375 0.359375 0.083408 247 226 223
0.113281 0.359375 0.082025 233 219 216
0.117188 0.359375 0.080174 212 204 201
0.121094 0.359375 0.078180 207 205 204
0.125000 0.359375 0.075840 237 231 234
0.128906 0.359375 0.073337 234 219 227
0.132812 0.359375 0.070169 223 209 217
0.136719 0.359375 0.066739 226 215 220
0.140625 0.359375 0.062977 237 230 233
0.144531 0.359375 0.058602 240 236 238
0.148438 0.359375 0.053528 242 240 241
0.152344 0.359375 0.047933 243 242 242
