ply
    format ascii 1.0
    element vertex 88872
    property float x
    property float y
    property float z
    property uchar red
    property uchar green
    property uchar blue
    end_header
-0.160156 -0.500000 -0.056567 43 86 124
-0.156250 -0.500000 -0.057032 45 89 127
-0.152344 -0.500000 -0.057052 50 97 133
-0.148438 -0.500000 -0.056765 43 87 125
-0.144531 -0.500000 -0.056139 52 101 139
-0.140625 -0.500000 -0.055289 55 105 143
-0.136719 -0.500000 -0.054160 49 96 135
-0.132812 -0.500000 -0.052581 60 111 149
-0.128906 -0.500000 -0.051094 56 108 147
-0.125000 -0.500000 -0.049377 45 94 133
-0.121094 -0.500000 -0.046838 46 95 133
-0.117188 -0.500000 -0.043512 55 106 142
-0.113281 -0.500000 -0.039770 66 116 151
-0.109375 -0.500000 -0.035367 69 116 150
-0.105469 -0.500000 -0.029235 68 116 155
-0.101562 -0.500000 -0.021712 65 113 156
-0.097656 -0.500000 -0.012041 49 92 128
-0.093750 -0.500000 -0.000833 40 70 102
-0.089844 -0.500000 0.009595 60 84 114
-0.015625 -0.500000 -0.003221 221 228 227
-0.011719 -0.500000 -0.011511 30 48 66
-0.007812 -0.500000 -0.019879 21 37 54
-0.003906 -0.500000 -0.026452 32 56 76
0.000000 -0.500000 -0.031978 36 62 82
0.003906 -0.500000 -0.038142 38 66 88
0.007812 -0.500000 -0.044723 36 64 88
0.011719 -0.500000 -0.050462 39 70 96
0.015625 -0.500000 -0.055346 46 82 111
0.019531 -0.500000 -0.059114 49 86 119
0.023438 -0.500000 -0.061847 48 87 122
0.027344 -0.500000 -0.064474 48 88 124
0.031250 -0.500000 -0.066943 50 92 129
0.035156 -0.500000 -0.068739 53 98 136
0.039062 -0.500000 -0.070180 54 102 139
0.042969 -0.500000 -0.071187 51 102 138
0.046875 -0.500000 -0.071902 49 102 138
0.050781 -0.500000 -0.072091 51 106 142
0.054688 -0.500000 -0.071811 52 108 143
0.058594 -0.500000 -0.071338 54 108 144
0.062500 -0.500000 -0.070768 56 108 144
0.066406 -0.500000 -0.069467 57 108 144
0.070312 -0.500000 -0.067687 58 109 146
0.074219 -0.500000 -0.065848 59 111 148
0.078125 -0.500000 -0.063893 60 114 153
0.082031 -0.500000 -0.061273 67 123 163
0.085938 -0.500000 -0.058082 68 124 163
0.089844 -0.500000 -0.054866 62 117 156
0.093750 -0.500000 -0.051219 73 131 167
0.097656 -0.500000 -0.046450 79 137 174
0.101562 -0.500000 -0.040750 73 128 168
0.105469 -0.500000 -0.033907 56 108 149
0.109375 -0.500000 -0.026485 46 93 130
0.113281 -0.500000 -0.019653 63 105 138
0.117188 -0.500000 -0.013243 156 181 191
-0.222656 -0.503906 0.009882 50 72 99
-0.218750 -0.503906 0.001981 21 41 70
-0.214844 -0.503906 -0.005389 25 53 84
-0.210938 -0.503906 -0.013202 28 59 92
-0.207031 -0.503906 -0.018828 30 62 96
-0.203125 -0.503906 -0.024037 28 59 89
-0.199219 -0.503906 -0.028410 26 53 82
-0.195312 -0.503906 -0.032845 30 59 88
-0.191406 -0.503906 -0.037098 39 71 101
-0.187500 -0.503906 -0.041103 42 74 105
-0.183594 -0.503906 -0.044527 45 80 111
-0.179688 -0.503906 -0.047183 46 83 115
-0.175781 -0.503906 -0.050011 46 84 118
-0.171875 -0.503906 -0.052575 46 86 120
-0.167969 -0.503906 -0.054148 46 88 122
-0.164062 -0.503906 -0.055058 51 95 130
-0.160156 -0.503906 -0.055785 47 89 126
-0.156250 -0.503906 -0.056248 48 92 128
-0.152344 -0.503906 -0.056333 53 98 134
-0.148438 -0.503906 -0.055997 45 90 127
-0.144531 -0.503906 -0.055363 55 105 141
-0.140625 -0.503906 -0.054491 59 109 146
-0.136719 -0.503906 -0.053275 52 100 137
-0.132812 -0.503906 -0.051660 62 113 150
-0.128906 -0.503906 -0.050098 57 109 147
-0.125000 -0.503906 -0.048339 46 95 135
-0.121094 -0.503906 -0.045791 48 98 136
-0.117188 -0.503906 -0.042313 57 109 144
-0.113281 -0.503906 -0.038320 67 118 151
-0.109375 -0.503906 -0.033711 63 112 145
-0.105469 -0.503906 -0.027625 59 108 147
-0.101562 -0.503906 -0.019649 53 104 147
-0.097656 -0.503906 -0.009995 44 89 128
-0.093750 -0.503906 0.000930 44 79 115
-0.089844 -0.503906 0.010509 47 71 102
-0.015625 -0.503906 -0.002706 178 195 199
-0.011719 -0.503906 -0.010791 31 51 71
-0.007812 -0.503906 -0.019067 16 29 46
-0.003906 -0.503906 -0.025466 26 48 69
0.000000 -0.503906 -0.031221 31 57 79
0.003906 -0.503906 -0.037379 34 61 84
0.007812 -0.503906 -0.044131 33 60 84
0.011719 -0.503906 -0.050008 35 65 91
0.015625 -0.503906 -0.054844 41 75 105
0.019531 -0.503906 -0.058677 43 79 111
0.023438 -0.503906 -0.061529 44 81 116
0.027344 -0.503906 -0.064334 47 87 123
0.031250 -0.503906 -0.066807 51 94 130
0.035156 -0.503906 -0.068714 53 99 136
0.039062 -0.503906 -0.070249 55 103 140
0.042969 -0.503906 -0.071359 52 104 141
0.046875 -0.503906 -0.072065 48 101 138
0.050781 -0.503906 -0.072357 47 101 138
0.054688 -0.503906 -0.071995 47 102 138
0.058594 -0.503906 -0.071655 50 105 141
0.062500 -0.503906 -0.070963 53 107 143
0.066406 -0.503906 -0.069746 54 105 141
0.070312 -0.503906 -0.067888 51 101 139
0.074219 -0.503906 -0.066101 51 100 140
0.078125 -0.503906 -0.064082 54 105 146
0.082031 -0.503906 -0.061540 62 116 158
0.085938 -0.503906 -0.058406 66 122 162
0.089844 -0.503906 -0.055233 60 116 156
0.093750 -0.503906 -0.051638 67 124 163
0.097656 -0.503906 -0.046991 78 135 172
0.101562 -0.503906 -0.041317 71 125 165
0.105469 -0.503906 -0.034578 53 103 142
0.109375 -0.503906 -0.027239 48 94 130
0.113281 -0.503906 -0.020441 61 98 132
0.117188 -0.503906 -0.014111 142 168 180
-0.222656 -0.507812 0.008651 42 61 86
-0.218750 -0.507812 0.001006 38 66 101
-0.214844 -0.507812 -0.006301 30 61 96
-0.210938 -0.507812 -0.013185 24 53 86
-0.207031 -0.507812 -0.018724 29 60 94
-0.203125 -0.507812 -0.023541 27 55 87
-0.199219 -0.507812 -0.027909 25 53 83
-0.195312 -0.507812 -0.032192 31 61 91
-0.191406 -0.507812 -0.036241 40 73 105
-0.187500 -0.507812 -0.040196 44 79 111
-0.183594 -0.507812 -0.043580 46 81 114
-0.179688 -0.507812 -0.046275 46 82 115
-0.175781 -0.507812 -0.049048 47 84 117
-0.171875 -0.507812 -0.051464 47 85 118
-0.167969 -0.507812 -0.053157 48 87 120
-0.164062 -0.507812 -0.054029 51 92 125
-0.160156 -0.507812 -0.054840 45 85 119
-0.156250 -0.507812 -0.055353 47 87 122
-0.152344 -0.507812 -0.055383 51 93 128
-0.148438 -0.507812 -0.055043 45 88 124
-0.144531 -0.507812 -0.054426 53 100 137
-0.140625 -0.507812 -0.053483 53 101 140
-0.136719 -0.507812 -0.052177 45 90 130
-0.132812 -0.507812 -0.050507 52 100 140
-0.128906 -0.507812 -0.048953 51 101 141
-0.125000 -0.507812 -0.047054 46 95 136
-0.121094 -0.507812 -0.044370 48 99 138
-0.117188 -0.507812 -0.040793 55 107 142
-0.113281 -0.507812 -0.036610 63 115 147
-0.109375 -0.507812 -0.031872 56 106 138
-0.105469 -0.507812 -0.025503 51 103 139
-0.101562 -0.507812 -0.017379 48 101 142
-0.097656 -0.507812 -0.008032 40 88 128
-0.093750 -0.507812 0.002535 49 89 127
-0.089844 -0.507812 0.010960 41 62 96
-0.019531 -0.507812 0.006148 13 25 43
-0.015625 -0.507812 -0.001982 70 96 115
-0.011719 -0.507812 -0.009906 36 60 84
-0.007812 -0.507812 -0.018152 13 25 43
-0.003906 -0.507812 -0.024596 22 42 64
0.000000 -0.507812 -0.030257 28 53 76
0.003906 -0.507812 -0.036761 30 57 81
0.007812 -0.507812 -0.043612 30 57 81
0.011719 -0.507812 -0.049456 31 60 85
0.015625 -0.507812 -0.054464 35 67 95
0.019531 -0.507812 -0.058408 36 69 101
0.023438 -0.507812 -0.061330 38 74 107
0.027344 -0.507812 -0.064203 43 82 117
0.031250 -0.507812 -0.066684 48 90 126
0.035156 -0.507812 -0.068741 52 97 134
0.039062 -0.507812 -0.070286 58 107 144
0.042969 -0.507812 -0.071469 60 113 149
0.046875 -0.507812 -0.072292 58 114 150
0.050781 -0.507812 -0.072607 55 113 150
0.054688 -0.507812 -0.072406 54 112 148
0.058594 -0.507812 -0.071978 56 115 149
0.062500 -0.507812 -0.071366 58 115 150
0.066406 -0.507812 -0.070099 59 114 149
0.070312 -0.507812 -0.068281 59 114 150
0.074219 -0.507812 -0.066464 60 114 153
0.078125 -0.507812 -0.064448 61 115 156
0.082031 -0.507812 -0.062031 63 119 161
0.085938 -0.507812 -0.058897 69 126 166
0.089844 -0.507812 -0.055689 68 124 163
0.093750 -0.507812 -0.052131 69 124 161
0.097656 -0.507812 -0.047568 71 126 164
0.101562 -0.507812 -0.041963 59 108 151
0.105469 -0.507812 -0.035488 48 92 132
0.109375 -0.507812 -0.028102 52 95 129
0.113281 -0.507812 -0.021457 57 92 125
0.117188 -0.507812 -0.014940 133 163 175
-0.222656 -0.511719 0.007977 39 59 79
-0.218750 -0.511719 -0.000025 54 87 116
-0.214844 -0.511719 -0.006759 39 75 109
-0.210938 -0.511719 -0.013651 28 57 92
-0.207031 -0.511719 -0.018720 31 61 97
-0.203125 -0.511719 -0.023261 26 53 86
-0.199219 -0.511719 -0.027298 27 55 88
-0.195312 -0.511719 -0.031445 32 63 96
-0.191406 -0.511719 -0.035486 39 72 105
-0.187500 -0.511719 -0.039368 44 79 111
-0.183594 -0.511719 -0.042672 42 76 109
-0.179688 -0.511719 -0.045254 42 75 108
-0.175781 -0.511719 -0.047991 44 78 111
-0.171875 -0.511719 -0.050509 44 78 111
-0.167969 -0.511719 -0.052105 46 81 114
-0.164062 -0.511719 -0.053082 50 86 118
-0.160156 -0.511719 -0.053850 44 79 112
-0.156250 -0.511719 -0.054454 44 79 113
-0.152344 -0.511719 -0.054427 47 85 120
-0.148438 -0.511719 -0.054094 44 84 121
-0.144531 -0.511719 -0.053420 50 94 133
-0.140625 -0.511719 -0.052408 49 95 136
-0.136719 -0.511719 -0.051047 41 86 127
-0.132812 -0.511719 -0.049320 44 92 133
-0.128906 -0.511719 -0.047574 49 99 140
-0.125000 -0.511719 -0.045710 53 106 146
-0.121094 -0.511719 -0.042929 55 110 147
-0.117188 -0.511719 -0.039203 52 105 140
-0.113281 -0.511719 -0.034931 57 109 141
-0.109375 -0.511719 -0.029849 50 99 133
-0.105469 -0.511719 -0.023395 45 95 133
-0.101562 -0.511719 -0.015096 43 95 137
-0.097656 -0.511719 -0.006255 33 79 120
-0.093750 -0.511719 0.003831 46 89 127
-0.089844 -0.511719 0.011010 37 59 92
-0.019531 -0.511719 0.007149 12 25 47
-0.015625 -0.511719 -0.001282 221 228 227
-0.011719 -0.511719 -0.008844 43 71 98
-0.007812 -0.511719 -0.016945 12 25 47
-0.003906 -0.511719 -0.023434 19 38 63
0.000000 -0.511719 -0.029506 25 49 74
0.003906 -0.511719 -0.035972 29 56 81
0.007812 -0.511719 -0.042864 29 58 83
0.011719 -0.511719 -0.048971 30 59 85
0.015625 -0.511719 -0.054024 32 63 92
0.019531 -0.511719 -0.058008 33 67 98
0.023438 -0.511719 -0.061056 35 71 105
0.027344 -0.511719 -0.063992 37 74 110
0.031250 -0.511719 -0.066602 39 77 114
0.035156 -0.511719 -0.068724 44 86 124
0.039062 -0.511719 -0.070364 54 102 139
0.042969 -0.511719 -0.071584 60 113 148
0.046875 -0.511719 -0.072525 63 119 154
0.050781 -0.511719 -0.072916 65 125 158
0.054688 -0.511719 -0.072703 66 128 161
0.058594 -0.511719 -0.072240 66 130 162
0.062500 -0.511719 -0.071730 63 126 158
0.066406 -0.511719 -0.070481 63 123 157
0.070312 -0.511719 -0.068715 67 126 161
0.074219 -0.511719 -0.066930 67 126 163
0.078125 -0.511719 -0.064873 64 121 161
0.082031 -0.511719 -0.062369 64 121 162
0.085938 -0.511719 -0.059430 71 129 168
0.089844 -0.511719 -0.056263 71 125 163
0.093750 -0.511719 -0.052793 65 116 153
0.097656 -0.511719 -0.048288 62 113 152
0.101562 -0.511719 -0.042745 48 92 137
0.105469 -0.511719 -0.036333 40 79 117
0.109375 -0.511719 -0.029269 47 86 115
0.113281 -0.511719 -0.022533 59 94 121
0.117188 -0.511719 -0.016099 190 206 213
-0.218750 -0.515625 -0.001302 41 70 97
-0.214844 -0.515625 -0.007733 35 66 99
-0.210938 -0.515625 -0.014167 27 53 89
-0.207031 -0.515625 -0.018848 28 55 92
-0.203125 -0.515625 -0.023056 25 50 85
-0.199219 -0.515625 -0.027012 29 57 92
-0.195312 -0.515625 -0.031015 31 60 94
-0.191406 -0.515625 -0.034920 29 57 89
-0.187500 -0.515625 -0.038712 32 61 94
-0.183594 -0.515625 -0.041793 32 60 93
-0.179688 -0.515625 -0.044359 33 62 95
-0.175781 -0.515625 -0.047065 36 67 100
-0.171875 -0.515625 -0.049551 36 66 99
-0.167969 -0.515625 -0.051120 39 70 102
-0.164062 -0.515625 -0.052084 44 77 109
-0.160156 -0.515625 -0.052897 42 73 106
-0.156250 -0.515625 -0.053362 40 73 105
-0.152344 -0.515625 -0.053444 44 79 113
-0.148438 -0.515625 -0.052963 46 85 121
-0.144531 -0.515625 -0.052216 52 97 136
-0.140625 -0.515625 -0.051156 53 102 142
-0.136719 -0.515625 -0.049806 46 94 134
-0.132812 -0.515625 -0.047987 45 93 134
-0.128906 -0.515625 -0.046196 51 103 144
-0.125000 -0.515625 -0.044262 59 115 154
-0.121094 -0.515625 -0.041223 60 116 153
-0.117188 -0.515625 -0.037448 53 107 142
-0.113281 -0.515625 -0.032833 56 109 142
-0.109375 -0.515625 -0.027632 48 98 132
-0.105469 -0.515625 -0.021154 41 90 128
-0.101562 -0.515625 -0.012827 40 90 134
-0.097656 -0.515625 -0.004288 30 76 120
-0.093750 -0.515625 0.005120 43 88 129
-0.089844 -0.515625 0.011399 34 56 88
-0.019531 -0.515625 0.008502 19 36 63
-0.015625 -0.515625 0.000017 178 195 199
-0.011719 -0.515625 -0.007819 41 65 95
-0.007812 -0.515625 -0.015894 19 36 63
-0.003906 -0.515625 -0.022511 21 44 69
0.000000 -0.515625 -0.028512 24 49 73
0.003906 -0.515625 -0.035082 27 53 78
0.007812 -0.515625 -0.042301 27 55 79
0.011719 -0.515625 -0.048447 29 58 84
0.015625 -0.515625 -0.053625 32 64 93
0.019531 -0.515625 -0.057747 37 72 104
0.023438 -0.515625 -0.060940 41 79 113
0.027344 -0.515625 -0.063899 41 81 116
0.031250 -0.515625 -0.066546 41 81 117
0.035156 -0.515625 -0.068679 46 89 125
0.039062 -0.515625 -0.070362 55 102 138
0.042969 -0.515625 -0.071683 57 108 144
0.046875 -0.515625 -0.072665 57 111 146
0.050781 -0.515625 -0.073067 60 117 152
0.054688 -0.515625 -0.072888 66 127 160
0.058594 -0.515625 -0.072547 71 136 168
0.062500 -0.515625 -0.071922 67 130 163
0.066406 -0.515625 -0.070771 63 124 158
0.070312 -0.515625 -0.068970 65 126 161
0.074219 -0.515625 -0.067292 64 123 160
0.078125 -0.515625 -0.065258 60 117 156
0.082031 -0.515625 -0.062870 63 120 159
0.085938 -0.515625 -0.059926 71 128 166
0.089844 -0.515625 -0.056848 63 116 155
0.093750 -0.515625 -0.053445 54 102 141
0.097656 -0.515625 -0.048984 58 106 146
0.101562 -0.515625 -0.043488 47 91 136
0.105469 -0.515625 -0.037310 36 73 110
0.109375 -0.515625 -0.030459 38 73 101
0.113281 -0.515625 -0.023860 67 99 127
0.117188 -0.515625 -0.017261 149 178 194
-0.218750 -0.519531 -0.002174 44 73 101
-0.214844 -0.519531 -0.008581 35 66 101
-0.210938 -0.519531 -0.014450 30 58 96
-0.207031 -0.519531 -0.018869 34 64 102
-0.203125 -0.519531 -0.022985 33 62 99
-0.199219 -0.519531 -0.026695 38 70 107
-0.195312 -0.519531 -0.030523 34 65 100
-0.191406 -0.519531 -0.034322 25 52 85
-0.187500 -0.519531 -0.037979 27 54 89
-0.183594 -0.519531 -0.041082 29 57 92
-0.179688 -0.519531 -0.043514 33 64 98
-0.175781 -0.519531 -0.046152 39 73 108
-0.171875 -0.519531 -0.048476 40 74 107
-0.167969 -0.519531 -0.050056 43 77 110
-0.164062 -0.519531 -0.050995 49 85 117
-0.160156 -0.519531 -0.051849 47 81 114
-0.156250 -0.519531 -0.052273 42 76 109
-0.152344 -0.519531 -0.052298 43 78 112
-0.148438 -0.519531 -0.051746 47 87 123
-0.144531 -0.519531 -0.051043 54 99 138
-0.140625 -0.519531 -0.049887 56 104 144
-0.136719 -0.519531 -0.048430 48 96 138
-0.132812 -0.519531 -0.046595 44 92 135
-0.128906 -0.519531 -0.044687 49 101 142
-0.125000 -0.519531 -0.042647 53 108 148
-0.121094 -0.519531 -0.039626 54 110 147
-0.117188 -0.519531 -0.035669 56 112 146
-0.113281 -0.519531 -0.030976 62 119 151
-0.109375 -0.519531 -0.025488 54 108 141
-0.105469 -0.519531 -0.018875 44 98 134
-0.101562 -0.519531 -0.010937 45 101 142
-0.097656 -0.519531 -0.002871 40 94 137
-0.093750 -0.519531 0.005982 53 102 142
-0.019531 -0.519531 0.010380 33 56 83
-0.015625 -0.519531 0.001944 70 96 115
-0.011719 -0.519531 -0.006421 30 47 71
-0.007812 -0.519531 -0.014801 33 56 83
-0.003906 -0.519531 -0.021463 31 61 83
0.000000 -0.519531 -0.027760 27 55 77
0.003906 -0.519531 -0.034487 26 53 76
0.007812 -0.519531 -0.041676 26 53 76
0.011719 -0.519531 -0.047920 29 59 85
0.015625 -0.519531 -0.053194 35 70 97
0.019531 -0.519531 -0.057394 41 79 108
0.023438 -0.519531 -0.060749 46 86 116
0.027344 -0.519531 -0.063730 47 89 121
0.031250 -0.519531 -0.066505 47 88 122
0.035156 -0.519531 -0.068713 50 93 129
0.039062 -0.519531 -0.070468 56 102 138
0.042969 -0.519531 -0.071791 56 104 140
0.046875 -0.519531 -0.072860 53 103 139
0.050781 -0.519531 -0.073350 53 106 142
0.054688 -0.519531 -0.073176 60 117 153
0.058594 -0.519531 -0.072816 69 131 164
0.062500 -0.519531 -0.072314 66 128 161
0.066406 -0.519531 -0.071060 61 122 156
0.070312 -0.519531 -0.069395 62 122 156
0.074219 -0.519531 -0.067652 61 118 155
0.078125 -0.519531 -0.065678 57 113 152
0.082031 -0.519531 -0.063378 60 116 155
0.085938 -0.519531 -0.060556 69 126 163
0.089844 -0.519531 -0.057544 60 115 152
0.093750 -0.519531 -0.054059 48 98 137
0.097656 -0.519531 -0.049717 54 103 145
0.101562 -0.519531 -0.044471 47 93 139
0.105469 -0.519531 -0.038258 33 69 109
0.109375 -0.519531 -0.031330 33 66 97
0.113281 -0.519531 -0.024874 73 106 137
0.117188 -0.519531 -0.018159 107 148 172
-0.218750 -0.523438 -0.003874 50 79 105
-0.214844 -0.523438 -0.009700 37 68 102
-0.210938 -0.523438 -0.014829 34 64 103
-0.207031 -0.523438 -0.019067 40 72 111
-0.203125 -0.523438 -0.022928 40 71 108
-0.199219 -0.523438 -0.026398 42 75 112
-0.195312 -0.523438 -0.030302 40 74 111
-0.191406 -0.523438 -0.033960 35 68 105
-0.187500 -0.523438 -0.037379 38 74 111
-0.183594 -0.523438 -0.040451 37 71 108
-0.179688 -0.523438 -0.042824 38 73 108
-0.175781 -0.523438 -0.045241 45 83 117
-0.171875 -0.523438 -0.047494 46 83 116
-0.167969 -0.523438 -0.048975 51 88 120
-0.164062 -0.523438 -0.049892 59 97 130
-0.160156 -0.523438 -0.050575 57 96 128
-0.156250 -0.523438 -0.051036 49 86 120
-0.152344 -0.523438 -0.050967 46 83 117
-0.148438 -0.523438 -0.050393 49 89 126
-0.144531 -0.523438 -0.049498 54 99 138
-0.140625 -0.523438 -0.048427 57 105 145
-0.136719 -0.523438 -0.046922 52 102 143
-0.132812 -0.523438 -0.045065 48 98 139
-0.128906 -0.523438 -0.043145 48 101 141
-0.125000 -0.523438 -0.041071 46 98 137
-0.121094 -0.523438 -0.037888 48 101 139
-0.117188 -0.523438 -0.033873 59 117 152
-0.113281 -0.523438 -0.029093 70 129 161
-0.109375 -0.523438 -0.023491 59 115 148
-0.105469 -0.523438 -0.017091 48 103 139
-0.101562 -0.523438 -0.009325 45 101 143
-0.097656 -0.523438 -0.001686 43 98 140
-0.093750 -0.523438 0.006444 51 97 137
-0.015625 -0.523438 0.004168 221 228 227
-0.011719 -0.523438 -0.005103 27 44 61
-0.007812 -0.523438 -0.013494 33 55 78
-0.003906 -0.523438 -0.020665 32 61 85
0.000000 -0.523438 -0.027045 28 56 79
0.003906 -0.523438 -0.033797 28 54 78
0.007812 -0.523438 -0.041113 30 60 84
0.011719 -0.523438 -0.047462 37 70 97
0.015625 -0.523438 -0.052767 43 80 107
0.019531 -0.523438 -0.057048 44 82 110
0.023438 -0.523438 -0.060487 44 82 112
0.027344 -0.523438 -0.063709 46 85 116
0.031250 -0.523438 -0.066480 45 85 118
0.035156 -0.523438 -0.068708 47 88 123
0.039062 -0.523438 -0.070570 53 97 133
0.042969 -0.523438 -0.071990 53 100 136
0.046875 -0.523438 -0.073199 52 100 137
0.050781 -0.523438 -0.073674 53 105 141
0.054688 -0.523438 -0.073523 58 114 150
0.058594 -0.523438 -0.073279 64 123 158
0.062500 -0.523438 -0.072750 62 122 157
0.066406 -0.523438 -0.071601 61 120 155
0.070312 -0.523438 -0.069851 63 121 157
0.074219 -0.523438 -0.068206 62 119 156
0.078125 -0.523438 -0.066222 58 114 153
0.082031 -0.523438 -0.063975 58 113 152
0.085938 -0.523438 -0.061148 64 121 158
0.089844 -0.523438 -0.058149 60 115 153
0.093750 -0.523438 -0.054794 45 95 135
0.097656 -0.523438 -0.050499 41 88 131
0.101562 -0.523438 -0.045343 35 78 125
0.105469 -0.523438 -0.039219 28 65 106
0.109375 -0.523438 -0.032480 32 68 102
0.113281 -0.523438 -0.026089 66 102 135
0.117188 -0.523438 -0.019314 190 206 213
-0.222656 -0.527344 0.000135 125 146 157
-0.218750 -0.527344 -0.005684 37 62 88
-0.214844 -0.527344 -0.010809 32 62 93
-0.210938 -0.527344 -0.015680 32 62 100
-0.207031 -0.527344 -0.019301 36 65 102
-0.203125 -0.527344 -0.023156 37 66 100
-0.199219 -0.527344 -0.026599 37 69 102
-0.195312 -0.527344 -0.030141 43 78 113
-0.191406 -0.527344 -0.033709 49 89 124
-0.187500 -0.527344 -0.037094 55 97 131
-0.183594 -0.527344 -0.039854 44 83 117
-0.179688 -0.527344 -0.042068 38 74 108
-0.175781 -0.527344 -0.044533 39 76 111
-0.171875 -0.527344 -0.046700 35 68 103
-0.167969 -0.527344 -0.048054 35 68 102
-0.164062 -0.527344 -0.048925 43 80 114
-0.160156 -0.527344 -0.049463 47 86 120
-0.156250 -0.527344 -0.049957 45 83 118
-0.152344 -0.527344 -0.049749 44 83 117
-0.148438 -0.527344 -0.049047 48 89 125
-0.144531 -0.527344 -0.048100 53 97 134
-0.140625 -0.527344 -0.046957 60 108 145
-0.136719 -0.527344 -0.045429 63 114 151
-0.132812 -0.527344 -0.043539 58 111 149
-0.128906 -0.527344 -0.041571 52 106 144
-0.125000 -0.527344 -0.039439 43 94 134
-0.121094 -0.527344 -0.036319 45 97 135
-0.117188 -0.527344 -0.032200 62 121 156
-0.113281 -0.527344 -0.027327 74 133 166
-0.109375 -0.527344 -0.021721 64 120 154
-0.105469 -0.527344 -0.015444 57 113 150
-0.101562 -0.527344 -0.008030 51 109 149
-0.097656 -0.527344 -0.000778 47 103 142
-0.093750 -0.527344 0.007174 49 93 129
-0.015625 -0.527344 0.006399 178 195 199
-0.011719 -0.527344 -0.003405 46 68 80
-0.007812 -0.527344 -0.012370 26 45 60
-0.003906 -0.527344 -0.019824 30 57 79
0.000000 -0.527344 -0.026358 31 60 84
0.003906 -0.527344 -0.033311 31 60 85
0.007812 -0.527344 -0.040830 37 70 95
0.011719 -0.527344 -0.047065 43 79 106
0.015625 -0.527344 -0.052406 46 84 111
0.019531 -0.527344 -0.056786 44 82 110
0.023438 -0.527344 -0.060344 43 80 110
0.027344 -0.527344 -0.063519 48 87 118
0.031250 -0.527344 -0.066459 49 89 121
0.035156 -0.527344 -0.068857 49 91 125
0.039062 -0.527344 -0.070685 53 98 133
0.042969 -0.527344 -0.072324 52 98 134
0.046875 -0.527344 -0.073409 50 96 133
0.050781 -0.527344 -0.073986 52 101 139
0.054688 -0.527344 -0.073902 55 107 145
0.058594 -0.527344 -0.073643 55 109 147
0.062500 -0.527344 -0.073177 56 113 150
0.066406 -0.527344 -0.072129 61 119 155
0.070312 -0.527344 -0.070444 67 125 161
0.074219 -0.527344 -0.068698 68 127 163
0.078125 -0.527344 -0.066800 64 122 160
0.082031 -0.527344 -0.064521 58 114 154
0.085938 -0.527344 -0.061705 57 113 152
0.089844 -0.527344 -0.058786 55 110 149
0.093750 -0.527344 -0.055489 42 94 135
0.097656 -0.527344 -0.051256 32 79 124
0.101562 -0.527344 -0.046158 26 67 116
0.105469 -0.527344 -0.040250 25 65 112
0.109375 -0.527344 -0.033465 35 78 121
0.113281 -0.527344 -0.027075 52 91 132
0.117188 -0.527344 -0.020435 149 178 194
-0.222656 -0.531250 -0.002758 127 150 163
-0.218750 -0.531250 -0.007404 33 57 83
-0.214844 -0.531250 -0.012522 35 69 99
-0.210938 -0.531250 -0.016802 36 69 106
-0.207031 -0.531250 -0.019994 33 62 98
-0.203125 -0.531250 -0.023588 38 69 101
-0.199219 -0.531250 -0.026702 39 71 102
-0.195312 -0.531250 -0.030237 42 77 108
-0.191406 -0.531250 -0.033539 51 89 120
-0.187500 -0.531250 -0.036755 58 99 131
-0.183594 -0.531250 -0.039556 49 89 123
-0.179688 -0.531250 -0.041628 43 83 119
-0.175781 -0.531250 -0.043972 43 85 122
-0.171875 -0.531250 -0.045954 34 72 108
-0.167969 -0.531250 -0.047272 30 65 101
-0.164062 -0.531250 -0.047993 33 70 106
-0.160156 -0.531250 -0.048563 35 72 108
-0.156250 -0.531250 -0.049043 35 72 108
-0.152344 -0.531250 -0.048569 36 73 108
-0.148438 -0.531250 -0.047794 38 76 111
-0.144531 -0.531250 -0.046794 41 80 116
-0.140625 -0.531250 -0.045585 49 91 127
-0.136719 -0.531250 -0.044024 56 103 139
-0.132812 -0.531250 -0.042131 59 109 146
-0.128906 -0.531250 -0.040135 58 111 148
-0.125000 -0.531250 -0.038010 51 104 142
-0.121094 -0.531250 -0.034870 50 104 141
-0.117188 -0.531250 -0.030732 65 124 159
-0.113281 -0.531250 -0.025800 74 132 166
-0.109375 -0.531250 -0.020510 67 122 157
-0.105469 -0.531250 -0.014256 62 118 155
-0.101562 -0.531250 -0.007298 53 108 150
-0.097656 -0.531250 0.000178 48 100 137
-0.093750 -0.531250 0.007269 46 86 119
-0.015625 -0.531250 0.007977 70 96 115
-0.011719 -0.531250 -0.001519 82 108 115
-0.007812 -0.531250 -0.011160 26 45 59
-0.003906 -0.531250 -0.018786 36 65 86
0.000000 -0.531250 -0.025587 39 72 98
0.003906 -0.531250 -0.032975 35 66 92
0.007812 -0.531250 -0.040449 38 71 96
0.011719 -0.531250 -0.046763 40 73 101
0.015625 -0.531250 -0.052026 43 78 106
0.019531 -0.531250 -0.056517 44 79 108
0.023438 -0.531250 -0.060047 43 78 108
0.027344 -0.531250 -0.063469 46 83 113
0.031250 -0.531250 -0.066334 45 83 115
0.035156 -0.531250 -0.068796 47 86 120
0.039062 -0.531250 -0.070812 52 94 129
0.042969 -0.531250 -0.072345 51 95 131
0.046875 -0.531250 -0.073652 49 95 132
0.050781 -0.531250 -0.074182 53 102 139
0.054688 -0.531250 -0.074108 57 108 146
0.058594 -0.531250 -0.073885 57 111 149
0.062500 -0.531250 -0.073437 62 118 154
0.066406 -0.531250 -0.072302 70 127 162
0.070312 -0.531250 -0.070758 76 133 167
0.074219 -0.531250 -0.069190 79 137 171
0.078125 -0.531250 -0.067304 76 134 171
0.082031 -0.531250 -0.065051 66 125 163
0.085938 -0.531250 -0.062398 56 113 154
0.089844 -0.531250 -0.059439 53 109 151
0.093750 -0.531250 -0.056187 50 108 151
0.097656 -0.531250 -0.052068 43 101 148
0.101562 -0.531250 -0.046998 34 88 139
0.105469 -0.531250 -0.041127 31 83 134
0.109375 -0.531250 -0.034386 41 94 144
0.113281 -0.531250 -0.027869 46 91 139
0.117188 -0.531250 -0.020974 107 148 172
-0.222656 -0.535156 -0.005521 133 158 171
-0.218750 -0.535156 -0.009528 31 57 84
-0.214844 -0.535156 -0.013791 37 75 105
-0.210938 -0.535156 -0.017840 33 67 104
-0.207031 -0.535156 -0.021041 24 49 82
-0.203125 -0.535156 -0.024404 32 60 92
-0.199219 -0.535156 -0.027166 33 61 92
-0.195312 -0.535156 -0.030359 29 56 83
-0.191406 -0.535156 -0.033622 34 64 91
-0.187500 -0.535156 -0.036665 45 82 111
-0.183594 -0.535156 -0.039287 48 88 119
-0.179688 -0.535156 -0.041132 54 98 131
-0.175781 -0.535156 -0.043357 61 111 144
-0.171875 -0.535156 -0.045281 54 102 138
-0.167969 -0.535156 -0.046491 50 99 135
-0.164062 -0.535156 -0.047252 49 99 137
-0.160156 -0.535156 -0.047772 43 89 128
-0.156250 -0.535156 -0.048000 39 82 121
-0.152344 -0.535156 -0.047564 38 80 118
-0.148438 -0.535156 -0.046568 38 77 114
-0.144531 -0.535156 -0.045602 38 77 113
-0.140625 -0.535156 -0.044296 41 80 116
-0.136719 -0.535156 -0.042710 46 87 122
-0.132812 -0.535156 -0.040860 51 96 131
-0.128906 -0.535156 -0.038831 57 107 141
-0.125000 -0.535156 -0.036720 58 112 146
-0.121094 -0.535156 -0.033487 57 113 148
-0.117188 -0.535156 -0.029369 64 122 157
-0.113281 -0.535156 -0.024661 68 124 160
-0.109375 -0.535156 -0.019357 67 121 157
-0.105469 -0.535156 -0.013465 64 119 158
-0.101562 -0.535156 -0.006296 56 109 151
-0.097656 -0.535156 0.001147 49 99 132
-0.093750 -0.535156 0.007779 45 84 109
-0.011719 -0.535156 0.000504 124 142 142
-0.007812 -0.535156 -0.009702 33 51 67
-0.003906 -0.535156 -0.017779 41 71 93
0.000000 -0.535156 -0.025330 43 78 104
0.003906 -0.535156 -0.032647 36 69 96
0.007812 -0.535156 -0.040207 37 70 97
0.011719 -0.535156 -0.046399 36 69 96
0.015625 -0.535156 -0.051637 41 75 103
0.019531 -0.535156 -0.056182 46 82 111
0.023438 -0.535156 -0.059933 46 82 113
0.027344 -0.535156 -0.063304 45 82 114
0.031250 -0.535156 -0.066384 41 77 110
0.035156 -0.535156 -0.068831 42 79 114
0.039062 -0.535156 -0.070915 47 87 123
0.042969 -0.535156 -0.072605 46 88 125
0.046875 -0.535156 -0.073885 44 88 126
0.050781 -0.535156 -0.074509 48 95 133
0.054688 -0.535156 -0.074497 54 104 143
0.058594 -0.535156 -0.074249 57 109 148
0.062500 -0.535156 -0.073896 60 111 149
0.066406 -0.535156 -0.072800 58 108 146
0.070312 -0.535156 -0.071247 57 106 143
0.074219 -0.535156 -0.069693 62 114 151
0.078125 -0.535156 -0.067851 71 126 164
0.082031 -0.535156 -0.065671 73 132 169
0.085938 -0.535156 -0.062980 65 125 164
0.089844 -0.535156 -0.060104 62 122 161
0.093750 -0.535156 -0.056927 63 126 164
0.097656 -0.535156 -0.052933 59 125 166
0.101562 -0.535156 -0.047891 51 116 164
0.105469 -0.535156 -0.042260 43 107 158
0.109375 -0.535156 -0.035453 47 111 162
0.113281 -0.535156 -0.028918 45 97 145
0.117188 -0.535156 -0.021394 68 112 141
-0.226562 -0.539062 0.002549 38 77 106
-0.222656 -0.539062 -0.007408 129 156 170
-0.218750 -0.539062 -0.011751 28 54 81
-0.214844 -0.539062 -0.015859 38 77 106
-0.210938 -0.539062 -0.019119 33 68 103
-0.207031 -0.539062 -0.022017 22 46 78
-0.203125 -0.539062 -0.025093 36 66 99
-0.199219 -0.539062 -0.027994 34 62 94
-0.195312 -0.539062 -0.030970 22 45 70
-0.191406 -0.539062 -0.033941 23 46 71
-0.187500 -0.539062 -0.036755 30 59 85
-0.183594 -0.539062 -0.039217 35 67 94
-0.179688 -0.539062 -0.040914 45 83 113
-0.175781 -0.539062 -0.043009 61 106 137
-0.171875 -0.539062 -0.044776 61 109 143
-0.167969 -0.539062 -0.045855 62 113 148
-0.164062 -0.539062 -0.046552 67 121 156
-0.160156 -0.539062 -0.047016 63 118 153
-0.156250 -0.539062 -0.047190 59 113 150
-0.152344 -0.539062 -0.046799 57 109 146
-0.148438 -0.539062 -0.045749 56 105 141
-0.144531 -0.539062 -0.044629 59 107 142
-0.140625 -0.539062 -0.043355 62 109 143
-0.136719 -0.539062 -0.041748 61 107 140
-0.132812 -0.539062 -0.039769 57 101 135
-0.128906 -0.539062 -0.037780 57 104 138
-0.125000 -0.539062 -0.035668 60 111 145
-0.121094 -0.539062 -0.032532 61 115 149
-0.117188 -0.539062 -0.028430 61 116 150
-0.113281 -0.539062 -0.023898 61 114 150
-0.109375 -0.539062 -0.018757 68 120 156
-0.105469 -0.539062 -0.013126 72 127 164
-0.101562 -0.539062 -0.006091 69 124 163
-0.097656 -0.539062 0.001596 54 102 133
-0.093750 -0.539062 0.007669 40 74 97
-0.011719 -0.539062 0.003421 158 163 159
-0.007812 -0.539062 -0.008074 41 58 71
-0.003906 -0.539062 -0.016835 40 69 86
0.000000 -0.539062 -0.024917 40 75 99
0.003906 -0.539062 -0.032425 40 74 101
0.007812 -0.539062 -0.039923 44 79 105
0.011719 -0.539062 -0.046056 42 76 103
0.015625 -0.539062 -0.051272 46 82 109
0.019531 -0.539062 -0.055872 51 89 117
0.023438 -0.539062 -0.059655 55 94 125
0.027344 -0.539062 -0.063144 60 101 133
0.031250 -0.539062 -0.066257 56 97 132
0.035156 -0.539062 -0.068888 51 92 129
0.039062 -0.539062 -0.071104 49 90 128
0.042969 -0.539062 -0.072795 42 83 122
0.046875 -0.539062 -0.074201 35 76 115
0.050781 -0.539062 -0.074970 34 75 115
0.054688 -0.539062 -0.074947 37 80 121
0.058594 -0.539062 -0.074813 40 84 126
0.062500 -0.539062 -0.074432 39 81 123
0.066406 -0.539062 -0.073367 32 70 112
0.070312 -0.539062 -0.071956 28 64 104
0.074219 -0.539062 -0.070241 33 74 116
0.078125 -0.539062 -0.068547 49 100 143
0.082031 -0.539062 -0.066311 66 124 165
0.085938 -0.539062 -0.063598 69 130 169
0.089844 -0.539062 -0.060846 67 129 167
0.093750 -0.539062 -0.057666 63 126 165
0.097656 -0.539062 -0.053815 58 122 164
0.101562 -0.539062 -0.048824 63 131 175
0.105469 -0.539062 -0.043249 64 136 180
0.109375 -0.539062 -0.036729 64 136 182
0.113281 -0.539062 -0.030186 54 110 157
0.117188 -0.539062 -0.022562 53 90 125
-0.226562 -0.542969 0.000764 33 69 99
-0.222656 -0.542969 -0.009307 129 158 174
-0.218750 -0.542969 -0.013801 24 49 78
-0.214844 -0.542969 -0.017401 33 69 99
-0.210938 -0.542969 -0.020722 33 68 104
-0.207031 -0.542969 -0.023614 25 53 87
-0.203125 -0.542969 -0.026269 47 83 117
-0.199219 -0.542969 -0.028712 43 75 109
-0.195312 -0.542969 -0.031815 27 52 81
-0.191406 -0.542969 -0.034484 27 53 80
-0.187500 -0.542969 -0.037165 29 54 80
-0.183594 -0.542969 -0.039338 28 52 75
-0.179688 -0.542969 -0.041027 32 58 82
-0.175781 -0.542969 -0.042951 47 80 107
-0.171875 -0.542969 -0.044688 56 96 125
-0.167969 -0.542969 -0.045591 57 102 133
-0.164062 -0.542969 -0.046162 56 104 138
-0.160156 -0.542969 -0.046537 57 107 141
-0.156250 -0.542969 -0.046672 63 115 149
-0.152344 -0.542969 -0.046170 62 115 149
-0.148438 -0.542969 -0.045166 60 112 146
-0.144531 -0.542969 -0.044003 71 122 154
-0.140625 -0.542969 -0.042700 85 135 164
-0.136719 -0.542969 -0.041050 81 129 157
-0.132812 -0.542969 -0.039157 67 111 141
-0.128906 -0.542969 -0.037042 59 102 134
-0.125000 -0.542969 -0.034878 57 102 136
-0.121094 -0.542969 -0.031906 60 109 143
-0.117188 -0.542969 -0.027775 58 108 142
-0.113281 -0.542969 -0.023431 56 104 140
-0.109375 -0.542969 -0.018392 64 113 149
-0.105469 -0.542969 -0.012759 70 123 161
-0.101562 -0.542969 -0.005961 69 120 162
-0.097656 -0.542969 0.001765 41 78 114
-0.093750 -0.542969 0.007750 28 54 80
-0.007812 -0.542969 -0.006474 44 59 72
-0.003906 -0.542969 -0.016082 35 59 74
0.000000 -0.542969 -0.024213 35 65 86
0.003906 -0.542969 -0.032159 38 70 94
0.007812 -0.542969 -0.039712 44 77 100
0.011719 -0.542969 -0.045668 45 79 102
0.015625 -0.542969 -0.050898 49 86 111
0.019531 -0.542969 -0.055460 50 89 117
0.023438 -0.542969 -0.059292 52 93 122
0.027344 -0.542969 -0.062973 62 105 137
0.031250 -0.542969 -0.066096 66 112 144
0.035156 -0.542969 -0.068783 63 110 144
0.039062 -0.542969 -0.070968 59 106 142
0.042969 -0.542969 -0.072799 52 100 138
0.046875 -0.542969 -0.074298 45 92 132
0.050781 -0.542969 -0.075105 40 86 128
0.054688 -0.542969 -0.075225 37 84 126
0.058594 -0.542969 -0.075128 39 86 129
0.062500 -0.542969 -0.074817 40 87 131
0.066406 -0.542969 -0.073871 37 84 128
0.070312 -0.542969 -0.072445 36 83 128
0.074219 -0.542969 -0.071005 41 91 136
0.078125 -0.542969 -0.069189 54 110 153
0.082031 -0.542969 -0.067039 67 126 168
0.085938 -0.542969 -0.064367 69 129 170
0.089844 -0.542969 -0.061594 67 128 168
0.093750 -0.542969 -0.058637 64 126 165
0.097656 -0.542969 -0.054826 58 118 159
0.101562 -0.542969 -0.050012 69 132 172
0.105469 -0.542969 -0.044640 76 142 181
0.109375 -0.542969 -0.037985 69 136 178
0.113281 -0.542969 -0.031407 56 107 151
0.117188 -0.542969 -0.024167 67 103 136
0.121094 -0.542969 -0.011358 69 136 178
-0.222656 -0.546875 -0.011004 143 172 188
-0.218750 -0.546875 -0.015489 26 55 86
-0.214844 -0.546875 -0.019129 28 64 96
-0.210938 -0.546875 -0.022157 34 70 110
-0.207031 -0.546875 -0.024791 29 60 97
-0.203125 -0.546875 -0.027417 44 78 113
-0.199219 -0.546875 -0.029763 37 66 100
-0.195312 -0.546875 -0.032632 30 56 87
-0.191406 -0.546875 -0.035246 37 65 95
-0.187500 -0.546875 -0.037805 32 57 84
-0.183594 -0.546875 -0.039981 25 45 67
-0.179688 -0.546875 -0.041486 22 39 59
-0.175781 -0.546875 -0.043373 26 47 67
-0.171875 -0.546875 -0.044941 42 73 96
-0.167969 -0.546875 -0.045732 58 97 125
-0.164062 -0.546875 -0.046069 57 100 133
-0.160156 -0.546875 -0.046386 47 91 127
-0.156250 -0.546875 -0.046559 48 93 129
-0.152344 -0.546875 -0.045868 47 92 129
-0.148438 -0.546875 -0.044910 43 87 123
-0.144531 -0.546875 -0.043733 50 95 129
-0.140625 -0.546875 -0.042393 62 106 137
-0.136719 -0.546875 -0.040670 59 100 129
-0.132812 -0.546875 -0.038761 47 84 113
-0.128906 -0.546875 -0.036714 41 76 106
-0.125000 -0.546875 -0.034450 37 74 106
-0.121094 -0.546875 -0.031490 44 86 120
-0.117188 -0.546875 -0.027508 48 94 129
-0.113281 -0.546875 -0.023196 47 93 129
-0.109375 -0.546875 -0.018418 53 99 137
-0.105469 -0.546875 -0.012851 54 103 144
-0.101562 -0.546875 -0.006179 53 97 142
-0.097656 -0.546875 0.001595 29 56 91
-0.093750 -0.546875 0.007852 31 58 86
-0.089844 -0.546875 0.012036 140 172 193
-0.007812 -0.546875 -0.004280 45 58 74
-0.003906 -0.546875 -0.015147 34 55 69
0.000000 -0.546875 -0.024097 32 58 76
0.003906 -0.546875 -0.032063 29 56 77
0.007812 -0.546875 -0.039569 30 57 77
0.011719 -0.546875 -0.045516 34 61 82
0.015625 -0.546875 -0.050556 41 73 97
0.019531 -0.546875 -0.055161 44 80 107
0.023438 -0.546875 -0.058991 44 81 110
0.027344 -0.546875 -0.062541 50 89 120
0.031250 -0.546875 -0.065747 59 102 134
0.035156 -0.546875 -0.068533 64 111 143
0.039062 -0.546875 -0.070783 64 112 146
0.042969 -0.546875 -0.072727 63 114 149
0.046875 -0.546875 -0.074274 62 115 153
0.050781 -0.546875 -0.075120 58 112 151
0.054688 -0.546875 -0.075395 53 106 147
0.058594 -0.546875 -0.075347 54 108 149
0.062500 -0.546875 -0.075070 58 113 154
0.066406 -0.546875 -0.074306 62 119 159
0.070312 -0.546875 -0.072889 64 122 163
0.074219 -0.546875 -0.071528 64 122 163
0.078125 -0.546875 -0.069768 66 124 164
0.082031 -0.546875 -0.067677 68 127 168
0.085938 -0.546875 -0.065111 66 124 165
0.089844 -0.546875 -0.062466 65 122 162
0.093750 -0.546875 -0.059476 65 121 160
0.097656 -0.546875 -0.055856 59 112 153
0.101562 -0.546875 -0.051117 65 119 160
0.105469 -0.546875 -0.045706 61 117 161
0.109375 -0.546875 -0.039366 50 104 152
0.113281 -0.546875 -0.032894 45 85 129
0.117188 -0.546875 -0.025691 85 118 145
0.121094 -0.546875 -0.013968 50 104 152
-0.222656 -0.550781 -0.012014 140 171 188
-0.218750 -0.550781 -0.017355 28 62 95
-0.214844 -0.550781 -0.021054 27 65 98
-0.210938 -0.550781 -0.023811 37 74 114
-0.207031 -0.550781 -0.026371 36 69 107
-0.203125 -0.550781 -0.028790 42 73 107
-0.199219 -0.550781 -0.030995 30 55 86
-0.195312 -0.550781 -0.033551 30 55 85
-0.191406 -0.550781 -0.036155 40 69 99
-0.187500 -0.550781 -0.038608 34 61 89
-0.183594 -0.550781 -0.040617 30 54 80
-0.179688 -0.550781 -0.042267 22 41 64
-0.175781 -0.550781 -0.043881 17 33 51
-0.171875 -0.550781 -0.045128 24 45 66
-0.167969 -0.550781 -0.046014 45 76 104
-0.164062 -0.550781 -0.046330 63 103 132
-0.160156 -0.550781 -0.046563 54 97 130
-0.156250 -0.550781 -0.046557 43 83 120
-0.152344 -0.550781 -0.046017 40 79 116
-0.148438 -0.550781 -0.044902 36 73 110
-0.144531 -0.550781 -0.043828 35 70 103
-0.140625 -0.550781 -0.042411 36 70 100
-0.136719 -0.550781 -0.040709 37 68 97
-0.132812 -0.550781 -0.038666 37 69 98
-0.128906 -0.550781 -0.036485 37 71 103
-0.125000 -0.550781 -0.034280 34 71 105
-0.121094 -0.550781 -0.031242 42 87 123
-0.117188 -0.550781 -0.027396 50 100 136
-0.113281 -0.550781 -0.023214 47 95 134
-0.109375 -0.550781 -0.018438 46 93 134
-0.105469 -0.550781 -0.013004 39 85 129
-0.101562 -0.550781 -0.006763 37 77 124
-0.097656 -0.550781 0.001121 24 48 83
-0.093750 -0.550781 0.007583 45 78 108
-0.089844 -0.550781 0.010462 77 111 133
-0.007812 -0.550781 -0.002144 61 76 95
-0.003906 -0.550781 -0.014279 35 55 72
0.000000 -0.550781 -0.023993 34 58 77
0.003906 -0.550781 -0.032130 29 54 75
0.007812 -0.550781 -0.039441 26 49 69
0.011719 -0.550781 -0.045398 27 50 72
0.015625 -0.550781 -0.050514 32 60 85
0.019531 -0.550781 -0.054942 38 70 97
0.023438 -0.550781 -0.058806 38 70 98
0.027344 -0.550781 -0.062369 38 71 99
0.031250 -0.550781 -0.065581 46 83 110
0.035156 -0.550781 -0.068402 54 94 123
0.039062 -0.550781 -0.070667 54 96 128
0.042969 -0.550781 -0.072698 54 98 132
0.046875 -0.550781 -0.074297 57 104 139
0.050781 -0.550781 -0.075348 57 106 142
0.054688 -0.550781 -0.075612 56 104 141
0.058594 -0.550781 -0.075617 60 107 145
0.062500 -0.550781 -0.075437 62 110 148
0.066406 -0.550781 -0.074639 61 111 149
0.070312 -0.550781 -0.073408 56 108 148
0.074219 -0.550781 -0.071999 50 102 144
0.078125 -0.550781 -0.070477 47 98 141
0.082031 -0.550781 -0.068442 48 99 144
0.085938 -0.550781 -0.065878 50 99 144
0.089844 -0.550781 -0.063432 50 97 139
0.093750 -0.550781 -0.060556 51 96 136
0.097656 -0.550781 -0.056860 55 101 142
0.101562 -0.550781 -0.052229 63 110 154
0.105469 -0.550781 -0.046975 47 93 140
0.109375 -0.550781 -0.041009 35 76 125
0.113281 -0.550781 -0.034600 36 70 113
0.117188 -0.550781 -0.027243 78 112 137
0.121094 -0.550781 -0.015551 35 76 125
-0.222656 -0.554688 -0.013231 90 123 150
-0.218750 -0.554688 -0.019016 28 61 97
-0.214844 -0.554688 -0.022655 29 71 105
-0.210938 -0.554688 -0.025464 32 69 107
-0.207031 -0.554688 -0.027773 35 68 105
-0.203125 -0.554688 -0.030357 39 70 105
-0.199219 -0.554688 -0.032323 27 52 84
-0.195312 -0.554688 -0.034769 29 55 86
-0.191406 -0.554688 -0.037246 38 69 102
-0.187500 -0.554688 -0.039510 38 70 101
-0.183594 -0.554688 -0.041478 45 78 106
-0.179688 -0.554688 -0.043035 40 70 98
-0.175781 -0.554688 -0.044605 26 49 72
-0.171875 -0.554688 -0.045838 22 42 64
-0.167969 -0.554688 -0.046514 25 48 73
-0.164062 -0.554688 -0.046728 41 75 104
-0.160156 -0.554688 -0.046821 56 97 129
-0.156250 -0.554688 -0.046695 48 90 126
-0.152344 -0.554688 -0.046188 44 85 122
-0.148438 -0.554688 -0.045192 43 83 119
-0.144531 -0.554688 -0.044005 37 75 108
-0.140625 -0.554688 -0.042655 35 71 101
-0.136719 -0.554688 -0.040856 39 76 106
-0.132812 -0.554688 -0.038797 47 87 118
-0.128906 -0.554688 -0.036516 52 95 129
-0.125000 -0.554688 -0.034262 48 95 131
-0.121094 -0.554688 -0.031271 55 108 145
-0.117188 -0.554688 -0.027426 56 111 148
-0.113281 -0.554688 -0.023331 45 96 136
-0.109375 -0.554688 -0.018611 41 88 131
-0.105469 -0.554688 -0.013170 34 79 126
-0.101562 -0.554688 -0.006946 32 71 118
-0.097656 -0.554688 0.000757 23 48 83
-0.093750 -0.554688 0.007606 49 87 114
-0.007812 -0.554688 -0.000840 109 128 144
-0.003906 -0.554688 -0.014146 35 55 73
0.000000 -0.554688 -0.024014 30 53 72
0.003906 -0.554688 -0.032244 34 60 82
0.007812 -0.554688 -0.039662 32 58 80
0.011719 -0.554688 -0.045650 31 57 79
0.015625 -0.554688 -0.050588 32 60 84
0.019531 -0.554688 -0.055011 34 64 90
0.023438 -0.554688 -0.058826 31 60 86
0.027344 -0.554688 -0.062333 28 55 79
0.031250 -0.554688 -0.065594 33 62 87
0.035156 -0.554688 -0.068389 39 72 98
0.039062 -0.554688 -0.070611 39 73 102
0.042969 -0.554688 -0.072686 39 74 104
0.046875 -0.554688 -0.074422 41 79 111
0.050781 -0.554688 -0.075380 44 82 115
0.054688 -0.554688 -0.075779 43 80 114
0.058594 -0.554688 -0.075894 44 79 115
0.062500 -0.554688 -0.075712 44 80 117
0.066406 -0.554688 -0.074979 42 81 119
0.070312 -0.554688 -0.073865 38 79 119
0.074219 -0.554688 -0.072658 34 75 117
0.078125 -0.554688 -0.071061 33 76 119
0.082031 -0.554688 -0.069161 38 82 127
0.085938 -0.554688 -0.066726 45 91 133
0.089844 -0.554688 -0.064292 46 89 128
0.093750 -0.554688 -0.061491 45 85 123
0.097656 -0.554688 -0.058013 50 91 131
0.101562 -0.554688 -0.053539 45 80 124
0.105469 -0.554688 -0.048516 22 47 88
0.109375 -0.554688 -0.042534 18 44 87
0.113281 -0.554688 -0.036352 30 60 102
0.117188 -0.554688 -0.028966 78 112 136
0.121094 -0.554688 -0.017926 18 44 87
-0.222656 -0.558594 -0.014352 44 70 99
-0.218750 -0.558594 -0.020772 28 60 96
-0.214844 -0.558594 -0.024533 32 75 113
-0.210938 -0.558594 -0.027336 28 62 101
-0.207031 -0.558594 -0.029597 32 64 101
-0.203125 -0.558594 -0.031770 36 67 103
-0.199219 -0.558594 -0.033803 28 54 87
-0.195312 -0.558594 -0.036261 31 60 93
-0.191406 -0.558594 -0.038430 39 71 105
-0.187500 -0.558594 -0.040650 38 70 101
-0.183594 -0.558594 -0.042582 40 73 101
-0.179688 -0.558594 -0.044081 38 71 98
-0.175781 -0.558594 -0.045483 34 64 93
-0.171875 -0.558594 -0.046724 29 57 86
-0.167969 -0.558594 -0.047256 21 45 71
-0.164062 -0.558594 -0.047057 27 55 84
-0.160156 -0.558594 -0.047121 51 88 122
-0.156250 -0.558594 -0.047000 58 100 135
-0.152344 -0.558594 -0.046359 57 102 137
-0.148438 -0.558594 -0.045272 56 102 136
-0.144531 -0.558594 -0.044017 52 97 130
-0.140625 -0.558594 -0.042808 52 97 129
-0.136719 -0.558594 -0.040890 55 101 132
-0.132812 -0.558594 -0.038772 55 102 134
-0.128906 -0.558594 -0.036520 54 103 136
-0.125000 -0.558594 -0.034144 49 101 137
-0.121094 -0.558594 -0.031285 55 111 148
-0.117188 -0.558594 -0.027387 51 107 145
-0.113281 -0.558594 -0.023288 36 85 126
-0.109375 -0.558594 -0.018596 35 83 127
-0.105469 -0.558594 -0.013305 35 85 132
-0.101562 -0.558594 -0.007156 36 81 131
-0.097656 -0.558594 0.000435 26 55 94
-0.093750 -0.558594 0.007238 44 84 115
-0.003906 -0.558594 -0.013631 35 58 74
0.000000 -0.558594 -0.024500 27 50 70
0.003906 -0.558594 -0.032980 37 65 91
0.007812 -0.558594 -0.039949 39 68 93
0.011719 -0.558594 -0.045608 35 64 89
0.015625 -0.558594 -0.050654 33 62 88
0.019531 -0.558594 -0.054965 33 64 91
0.023438 -0.558594 -0.058871 30 59 87
0.027344 -0.558594 -0.062385 28 56 83
0.031250 -0.558594 -0.065482 34 65 92
0.035156 -0.558594 -0.068277 39 72 100
0.039062 -0.558594 -0.070560 37 70 98
0.042969 -0.558594 -0.072543 35 67 96
0.046875 -0.558594 -0.074337 36 68 98
0.050781 -0.558594 -0.075355 37 70 101
0.054688 -0.558594 -0.075866 34 65 97
0.058594 -0.558594 -0.075986 33 62 95
0.062500 -0.558594 -0.075971 34 65 101
0.066406 -0.558594 -0.075360 36 71 108
0.070312 -0.558594 -0.074246 36 76 115
0.074219 -0.558594 -0.073069 36 80 119
0.078125 -0.558594 -0.071667 40 89 129
0.082031 -0.558594 -0.069775 51 104 145
0.085938 -0.558594 -0.067461 61 115 154
0.089844 -0.558594 -0.065024 56 103 142
0.093750 -0.558594 -0.062358 47 87 128
0.097656 -0.558594 -0.059010 43 81 123
0.101562 -0.558594 -0.054641 25 54 96
0.105469 -0.558594 -0.049877 12 31 65
0.109375 -0.558594 -0.044105 18 47 91
0.113281 -0.558594 -0.038093 44 84 125
0.117188 -0.558594 -0.030842 101 138 153
0.121094 -0.558594 -0.020610 18 47 91
-0.222656 -0.562500 -0.015951 36 65 91
-0.218750 -0.562500 -0.022494 28 63 99
-0.214844 -0.562500 -0.026460 31 72 112
-0.210938 -0.562500 -0.029171 28 63 103
-0.207031 -0.562500 -0.031407 33 67 105
-0.203125 -0.562500 -0.033639 33 62 97
-0.199219 -0.562500 -0.035561 28 55 89
-0.195312 -0.562500 -0.037645 35 67 101
-0.191406 -0.562500 -0.039873 41 74 108
-0.187500 -0.562500 -0.041895 38 72 104
-0.183594 -0.562500 -0.043692 33 66 96
-0.179688 -0.562500 -0.044985 27 58 87
-0.175781 -0.562500 -0.046438 29 60 92
-0.171875 -0.562500 -0.047500 33 66 99
-0.167969 -0.562500 -0.047894 26 54 84
-0.164062 -0.562500 -0.047796 24 50 78
-0.160156 -0.562500 -0.047747 35 67 98
-0.156250 -0.562500 -0.047480 47 83 117
-0.152344 -0.562500 -0.046722 55 95 130
-0.148438 -0.562500 -0.045622 55 97 132
-0.144531 -0.562500 -0.044283 53 97 131
-0.140625 -0.562500 -0.042989 58 104 137
-0.136719 -0.562500 -0.041098 58 106 138
-0.132812 -0.562500 -0.038961 53 102 134
-0.128906 -0.562500 -0.036628 51 101 136
-0.125000 -0.562500 -0.034279 50 104 142
-0.121094 -0.562500 -0.031317 58 118 155
-0.117188 -0.562500 -0.027529 53 114 153
-0.113281 -0.562500 -0.023492 37 91 133
-0.109375 -0.562500 -0.018712 36 90 134
-0.105469 -0.562500 -0.013637 39 96 143
-0.101562 -0.562500 -0.007273 47 101 150
-0.097656 -0.562500 0.000283 36 74 116
-0.093750 -0.562500 0.006337 50 95 128
-0.003906 -0.562500 -0.013539 42 65 87
0.000000 -0.562500 -0.025435 35 60 85
0.003906 -0.562500 -0.033630 40 70 99
0.007812 -0.562500 -0.040205 38 67 95
0.011719 -0.562500 -0.045982 33 61 88
0.015625 -0.562500 -0.050729 32 61 89
0.019531 -0.562500 -0.055000 35 67 96
0.023438 -0.562500 -0.058829 34 66 95
0.027344 -0.562500 -0.062196 35 67 95
0.031250 -0.562500 -0.065403 43 78 105
0.035156 -0.562500 -0.068149 48 85 112
0.039062 -0.562500 -0.070424 46 82 109
0.042969 -0.562500 -0.072528 43 79 107
0.046875 -0.562500 -0.074238 43 80 110
0.050781 -0.562500 -0.075326 44 81 112
0.054688 -0.562500 -0.075839 41 77 109
0.058594 -0.562500 -0.076131 41 77 111
0.062500 -0.562500 -0.076119 45 84 119
0.066406 -0.562500 -0.075563 47 91 127
0.070312 -0.562500 -0.074535 46 95 133
0.074219 -0.562500 -0.073542 47 99 137
0.078125 -0.562500 -0.072192 51 108 145
0.082031 -0.562500 -0.070389 63 123 160
0.085938 -0.562500 -0.068143 70 128 166
0.089844 -0.562500 -0.065862 57 107 149
0.093750 -0.562500 -0.063213 43 85 127
0.097656 -0.562500 -0.060105 37 77 118
0.101562 -0.562500 -0.055909 27 64 106
0.105469 -0.562500 -0.051520 23 62 105
0.109375 -0.562500 -0.045782 46 104 148
0.113281 -0.562500 -0.039863 72 125 159
0.117188 -0.562500 -0.032729 111 150 162
0.121094 -0.562500 -0.022768 46 104 148
-0.222656 -0.566406 -0.017610 58 96 119
-0.218750 -0.566406 -0.024352 34 76 112
-0.214844 -0.566406 -0.028325 34 78 118
-0.210938 -0.566406 -0.031052 35 73 114
-0.207031 -0.566406 -0.033250 36 70 109
-0.203125 -0.566406 -0.035332 27 54 89
-0.199219 -0.566406 -0.037128 27 54 88
-0.195312 -0.566406 -0.039328 35 68 103
-0.191406 -0.566406 -0.041269 38 71 106
-0.187500 -0.566406 -0.043308 41 77 112
-0.183594 -0.566406 -0.044882 44 83 116
-0.179688 -0.566406 -0.046092 39 76 108
-0.175781 -0.566406 -0.047334 34 69 101
-0.171875 -0.566406 -0.048330 36 72 104
-0.167969 -0.566406 -0.048738 35 70 102
-0.164062 -0.566406 -0.048676 32 64 95
-0.160156 -0.566406 -0.048606 32 63 94
-0.156250 -0.566406 -0.048212 35 66 98
