ply
    format ascii 1.0
    element vertex 87440
    property float x
    property float y
    property float z
    property uchar red
    property uchar green
    property uchar blue
    end_header
0.152344 0.144531 0.023098 50 54 64
0.156250 0.144531 0.016314 52 56 67
0.160156 0.144531 0.009069 60 64 75
0.164062 0.144531 0.000307 81 87 99
0.167969 0.144531 -0.008502 119 128 140
0.171875 0.144531 -0.018780 162 179 180
0.175781 0.144531 -0.031433 168 182 186
-0.218750 0.140625 0.042195 128 126 120
-0.214844 0.140625 0.052605 65 65 60
-0.210938 0.140625 0.060824 60 58 55
-0.207031 0.140625 0.077866 79 72 67
-0.203125 0.140625 0.093178 76 66 63
-0.199219 0.140625 0.104614 76 63 61
-0.195312 0.140625 0.114175 88 70 67
-0.191406 0.140625 0.123418 104 79 76
-0.187500 0.140625 0.130217 105 79 76
-0.183594 0.140625 0.132356 116 89 81
-0.179688 0.140625 0.129484 96 75 67
-0.175781 0.140625 0.124546 67 60 56
-0.171875 0.140625 0.118316 40 38 39
-0.167969 0.140625 0.111051 10 10 13
-0.164062 0.140625 0.105825 11 15 20
-0.160156 0.140625 0.104324 37 53 57
-0.156250 0.140625 0.105041 47 65 70
-0.152344 0.140625 0.106965 55 72 78
-0.148438 0.140625 0.109231 57 70 75
-0.144531 0.140625 0.111498 51 63 68
-0.140625 0.140625 0.113139 50 64 71
-0.136719 0.140625 0.114479 48 62 71
-0.132812 0.140625 0.115739 50 64 72
-0.128906 0.140625 0.116932 53 66 74
-0.125000 0.140625 0.117979 57 70 78
-0.121094 0.140625 0.118848 58 70 79
-0.117188 0.140625 0.119241 53 64 74
-0.113281 0.140625 0.119488 48 58 68
-0.109375 0.140625 0.119807 43 52 64
-0.105469 0.140625 0.120070 41 50 61
-0.101562 0.140625 0.120255 41 49 60
-0.097656 0.140625 0.120324 39 47 57
-0.093750 0.140625 0.120249 35 42 50
-0.089844 0.140625 0.120129 33 40 47
-0.085938 0.140625 0.119963 33 41 46
-0.082031 0.140625 0.119704 32 40 45
-0.078125 0.140625 0.119385 31 39 44
-0.074219 0.140625 0.119102 27 35 39
-0.070312 0.140625 0.118945 26 32 36
-0.066406 0.140625 0.119048 26 32 35
-0.062500 0.140625 0.119323 25 32 35
-0.058594 0.140625 0.119558 26 34 37
-0.054688 0.140625 0.119267 25 33 36
-0.050781 0.140625 0.119019 21 29 33
-0.046875 0.140625 0.119015 22 31 34
-0.042969 0.140625 0.119640 29 41 42
-0.039062 0.140625 0.120535 39 54 54
-0.035156 0.140625 0.120986 45 63 63
-0.031250 0.140625 0.120490 35 50 54
-0.027344 0.140625 0.119702 23 33 39
-0.023438 0.140625 0.119444 20 30 37
-0.019531 0.140625 0.119610 26 38 43
-0.015625 0.140625 0.119756 32 44 49
-0.011719 0.140625 0.119726 34 47 50
-0.007812 0.140625 0.119566 37 50 52
-0.003906 0.140625 0.119374 40 52 54
0.000000 0.140625 0.118869 40 52 55
0.003906 0.140625 0.118154 39 51 55
0.007812 0.140625 0.117223 38 50 54
0.011719 0.140625 0.116345 37 50 55
0.015625 0.140625 0.115478 37 50 55
0.019531 0.140625 0.114553 37 50 57
0.023438 0.140625 0.113732 38 51 58
0.027344 0.140625 0.112816 38 51 59
0.031250 0.140625 0.111941 39 52 59
0.035156 0.140625 0.110981 39 52 60
0.039062 0.140625 0.109917 40 54 61
0.042969 0.140625 0.108728 41 55 63
0.046875 0.140625 0.107471 42 56 63
0.050781 0.140625 0.106024 43 56 64
0.054688 0.140625 0.104590 44 58 66
0.058594 0.140625 0.102974 43 57 65
0.062500 0.140625 0.101243 41 55 64
0.066406 0.140625 0.099301 41 57 65
0.070312 0.140625 0.097255 40 56 64
0.074219 0.140625 0.095139 37 51 60
0.078125 0.140625 0.093144 39 55 64
0.082031 0.140625 0.091085 41 59 68
0.085938 0.140625 0.088713 37 55 64
0.089844 0.140625 0.086290 40 58 67
0.093750 0.140625 0.083890 44 63 72
0.097656 0.140625 0.081267 40 59 69
0.101562 0.140625 0.078519 37 56 65
0.105469 0.140625 0.075612 36 55 64
0.109375 0.140625 0.072766 36 54 63
0.113281 0.140625 0.070088 41 60 69
0.117188 0.140625 0.067252 44 62 71
0.121094 0.140625 0.064151 46 62 69
0.125000 0.140625 0.060855 50 62 66
0.128906 0.140625 0.056877 47 58 60
0.132812 0.140625 0.052164 46 55 60
0.136719 0.140625 0.047346 46 53 62
0.140625 0.140625 0.042518 48 53 64
0.144531 0.140625 0.036682 50 54 64
0.148438 0.140625 0.029727 45 49 59
0.152344 0.140625 0.022590 41 45 54
0.156250 0.140625 0.015912 41 44 54
0.160156 0.140625 0.008745 44 46 58
0.164062 0.140625 0.000321 53 55 68
0.167969 0.140625 -0.007615 85 90 102
0.171875 0.140625 -0.017343 143 158 160
0.175781 0.140625 -0.030377 167 180 186
-0.218750 0.136719 0.037718 53 53 68
-0.214844 0.136719 0.052137 54 58 66
-0.210938 0.136719 0.058732 56 57 62
-0.207031 0.136719 0.072094 69 64 64
-0.203125 0.136719 0.086146 73 63 61
-0.199219 0.136719 0.098899 73 60 58
-0.195312 0.136719 0.110402 86 68 65
-0.191406 0.136719 0.121797 103 79 76
-0.187500 0.136719 0.129702 104 79 76
-0.183594 0.136719 0.132629 115 88 81
-0.179688 0.136719 0.130205 96 75 67
-0.175781 0.136719 0.125225 66 58 54
-0.171875 0.136719 0.119207 40 37 38
-0.167969 0.136719 0.112790 10 10 14
-0.164062 0.136719 0.108539 12 16 20
-0.160156 0.136719 0.107378 39 54 58
-0.156250 0.136719 0.107804 48 66 71
-0.152344 0.136719 0.109117 56 72 78
-0.148438 0.136719 0.111044 56 69 73
-0.144531 0.136719 0.113219 48 59 64
-0.140625 0.136719 0.114686 46 58 64
-0.136719 0.136719 0.116053 44 56 64
-0.132812 0.136719 0.117249 45 58 66
-0.128906 0.136719 0.118452 47 60 68
-0.125000 0.136719 0.119408 51 63 72
-0.121094 0.136719 0.120139 51 63 74
-0.117188 0.136719 0.120435 45 57 69
-0.113281 0.136719 0.120575 40 50 63
-0.109375 0.136719 0.120855 36 46 59
-0.105469 0.136719 0.121109 34 43 56
-0.101562 0.136719 0.121343 34 44 55
-0.097656 0.136719 0.121551 34 43 53
-0.093750 0.136719 0.121537 30 39 48
-0.089844 0.136719 0.121364 28 37 44
-0.085938 0.136719 0.121221 28 36 43
-0.082031 0.136719 0.120911 26 35 42
-0.078125 0.136719 0.120552 24 33 39
-0.074219 0.136719 0.120331 22 30 36
-0.070312 0.136719 0.120296 21 28 34
-0.066406 0.136719 0.120439 21 28 33
-0.062500 0.136719 0.120882 21 29 33
-0.058594 0.136719 0.121190 24 33 37
-0.054688 0.136719 0.121182 29 39 42
-0.050781 0.136719 0.120925 30 42 42
-0.046875 0.136719 0.120943 33 46 45
-0.042969 0.136719 0.121164 40 55 53
-0.039062 0.136719 0.121577 41 57 56
-0.035156 0.136719 0.121591 36 52 55
-0.031250 0.136719 0.120698 26 40 46
-0.027344 0.136719 0.119807 20 31 38
-0.023438 0.136719 0.119657 20 31 38
-0.019531 0.136719 0.119741 26 39 45
-0.015625 0.136719 0.119807 31 44 50
-0.011719 0.136719 0.119743 33 46 49
-0.007812 0.136719 0.119668 35 47 50
-0.003906 0.136719 0.119434 37 49 52
0.000000 0.136719 0.118970 37 50 53
0.003906 0.136719 0.118246 36 49 54
0.007812 0.136719 0.117429 35 48 54
0.011719 0.136719 0.116483 35 48 54
0.015625 0.136719 0.115520 35 48 55
0.019531 0.136719 0.114628 35 49 56
0.023438 0.136719 0.113695 35 49 57
0.027344 0.136719 0.112942 35 49 58
0.031250 0.136719 0.112123 37 51 59
0.035156 0.136719 0.111227 38 52 60
0.039062 0.136719 0.110240 40 54 62
0.042969 0.136719 0.109064 41 56 63
0.046875 0.136719 0.107808 42 57 64
0.050781 0.136719 0.106493 43 58 66
0.054688 0.136719 0.105078 45 60 68
0.058594 0.136719 0.103556 45 60 67
0.062500 0.136719 0.101899 42 57 65
0.066406 0.136719 0.099976 43 58 66
0.070312 0.136719 0.097837 42 57 66
0.074219 0.136719 0.095569 35 50 59
0.078125 0.136719 0.093574 36 51 60
0.082031 0.136719 0.091618 41 58 67
0.085938 0.136719 0.089333 39 56 65
0.089844 0.136719 0.086922 39 57 65
0.093750 0.136719 0.084520 44 62 71
0.097656 0.136719 0.081951 42 61 69
0.101562 0.136719 0.079152 40 58 67
0.105469 0.136719 0.076250 39 58 65
0.109375 0.136719 0.073301 38 55 63
0.113281 0.136719 0.070493 41 59 67
0.117188 0.136719 0.067498 43 61 68
0.121094 0.136719 0.064246 45 60 67
0.125000 0.136719 0.060667 48 60 64
0.128906 0.136719 0.056559 44 54 57
0.132812 0.136719 0.051641 42 51 56
0.136719 0.136719 0.046767 42 48 57
0.140625 0.136719 0.041864 44 49 59
0.144531 0.136719 0.035920 45 48 58
0.148438 0.136719 0.028973 41 43 53
0.152344 0.136719 0.021859 38 41 50
0.156250 0.136719 0.015139 39 41 51
0.160156 0.136719 0.007981 41 43 54
0.164062 0.136719 -0.000110 44 44 57
0.167969 0.136719 -0.007859 59 61 75
0.171875 0.136719 -0.017237 109 123 131
0.175781 0.136719 -0.029156 142 157 169
-0.214844 0.132812 0.051885 63 68 82
-0.210938 0.132812 0.057489 72 78 87
-0.207031 0.132812 0.067745 61 60 62
-0.203125 0.132812 0.079904 68 60 59
-0.199219 0.132812 0.093119 71 58 57
-0.195312 0.132812 0.106430 83 66 63
-0.191406 0.132812 0.119309 102 78 75
-0.187500 0.132812 0.128078 101 77 74
-0.183594 0.132812 0.131740 113 87 80
-0.179688 0.132812 0.130311 95 74 67
-0.175781 0.132812 0.125690 64 57 53
-0.171875 0.132812 0.120549 40 37 38
-0.167969 0.132812 0.114900 10 10 14
-0.164062 0.132812 0.111351 13 17 21
-0.160156 0.132812 0.110228 42 59 62
-0.156250 0.132812 0.110236 50 68 72
-0.152344 0.132812 0.110812 55 69 75
-0.148438 0.132812 0.112561 53 65 69
-0.144531 0.132812 0.114621 44 54 58
-0.140625 0.132812 0.116063 39 49 56
-0.136719 0.132812 0.117285 38 48 55
-0.132812 0.132812 0.118441 40 50 58
-0.128906 0.132812 0.119628 42 53 62
-0.125000 0.132812 0.120577 44 56 66
-0.121094 0.132812 0.121163 42 54 65
-0.117188 0.132812 0.121465 37 48 60
-0.113281 0.132812 0.121636 32 42 55
-0.109375 0.132812 0.121874 30 40 53
-0.105469 0.132812 0.122232 31 41 53
-0.101562 0.132812 0.122507 33 44 56
-0.097656 0.132812 0.122827 35 46 57
-0.093750 0.132812 0.122895 33 44 53
-0.089844 0.132812 0.122772 31 42 50
-0.085938 0.132812 0.122528 29 39 47
-0.082031 0.132812 0.122203 27 37 45
-0.078125 0.132812 0.121815 25 36 43
-0.074219 0.132812 0.121622 25 35 42
-0.070312 0.132812 0.121603 26 37 44
-0.066406 0.132812 0.121722 29 40 46
-0.062500 0.132812 0.122066 32 44 49
-0.058594 0.132812 0.122361 37 50 54
-0.054688 0.132812 0.122243 42 57 59
-0.050781 0.132812 0.121975 40 55 55
-0.046875 0.132812 0.121669 36 51 50
-0.042969 0.132812 0.121529 36 50 50
-0.039062 0.132812 0.121618 30 44 46
-0.035156 0.132812 0.121452 25 38 43
-0.031250 0.132812 0.120747 21 34 41
-0.027344 0.132812 0.119950 20 31 39
-0.023438 0.132812 0.119764 22 34 42
-0.019531 0.132812 0.119960 28 41 48
-0.015625 0.132812 0.119873 32 46 51
-0.011719 0.132812 0.119643 33 46 50
-0.007812 0.132812 0.119528 34 46 50
-0.003906 0.132812 0.119332 35 47 51
0.000000 0.132812 0.118929 35 48 53
0.003906 0.132812 0.118325 35 48 54
0.007812 0.132812 0.117403 35 49 55
0.011719 0.132812 0.116401 35 49 56
0.015625 0.132812 0.115496 35 49 57
0.019531 0.132812 0.114553 35 50 58
0.023438 0.132812 0.113754 35 49 58
0.027344 0.132812 0.112907 35 50 59
0.031250 0.132812 0.112100 36 51 60
0.035156 0.132812 0.111277 38 53 61
0.039062 0.132812 0.110271 39 54 63
0.042969 0.132812 0.109211 40 56 64
0.046875 0.132812 0.107986 41 57 65
0.050781 0.132812 0.106689 43 59 67
0.054688 0.132812 0.105334 44 60 68
0.058594 0.132812 0.103939 45 61 68
0.062500 0.132812 0.102180 43 58 66
0.066406 0.132812 0.100427 43 59 67
0.070312 0.132812 0.098218 43 59 67
0.074219 0.132812 0.095837 36 51 60
0.078125 0.132812 0.093798 37 53 61
0.082031 0.132812 0.091922 44 62 70
0.085938 0.132812 0.089727 43 61 70
0.089844 0.132812 0.087289 42 59 68
0.093750 0.132812 0.084765 45 63 72
0.097656 0.132812 0.082173 44 62 71
0.101562 0.132812 0.079411 42 60 68
0.105469 0.132812 0.076511 42 60 68
0.109375 0.132812 0.073507 39 56 64
0.113281 0.132812 0.070570 42 59 67
0.117188 0.132812 0.067547 45 61 69
0.121094 0.132812 0.064192 47 61 68
0.125000 0.132812 0.060578 50 61 65
0.128906 0.132812 0.056359 47 57 60
0.132812 0.132812 0.051557 46 55 60
0.136719 0.132812 0.046731 45 52 60
0.140625 0.132812 0.041764 44 49 59
0.144531 0.132812 0.035737 42 45 55
0.148438 0.132812 0.028675 37 40 49
0.152344 0.132812 0.021625 36 38 47
0.156250 0.132812 0.014821 37 39 49
0.160156 0.132812 0.007663 42 43 54
0.164062 0.132812 -0.000038 45 46 58
0.167969 0.132812 -0.007646 52 54 67
0.171875 0.132812 -0.016694 92 104 115
0.175781 0.132812 -0.027575 125 143 156
-0.214844 0.128906 0.047926 62 59 70
-0.210938 0.128906 0.057695 96 100 111
-0.207031 0.128906 0.065690 64 65 68
-0.203125 0.128906 0.076078 69 61 60
-0.199219 0.128906 0.088683 72 60 58
-0.195312 0.128906 0.102606 81 65 62
-0.191406 0.128906 0.116315 99 76 73
-0.187500 0.128906 0.125430 96 73 71
-0.183594 0.128906 0.130358 111 85 78
-0.179688 0.128906 0.130045 94 74 67
-0.175781 0.128906 0.126572 64 56 54
-0.171875 0.128906 0.122184 40 37 38
-0.167969 0.128906 0.117389 10 10 13
-0.164062 0.128906 0.114126 13 17 21
-0.160156 0.128906 0.112797 43 59 62
-0.156250 0.128906 0.112116 47 62 67
-0.152344 0.128906 0.112116 46 59 65
-0.148438 0.128906 0.113651 44 55 60
-0.144531 0.128906 0.115887 38 47 52
-0.140625 0.128906 0.117395 34 44 50
-0.136719 0.128906 0.118494 33 42 50
-0.132812 0.128906 0.119489 35 46 54
-0.128906 0.128906 0.120594 38 50 59
-0.125000 0.128906 0.121529 40 52 62
-0.121094 0.128906 0.122131 37 50 62
-0.117188 0.128906 0.122414 33 45 58
-0.113281 0.128906 0.122678 30 42 55
-0.109375 0.128906 0.122970 30 42 54
-0.105469 0.128906 0.123366 33 46 57
-0.101562 0.128906 0.123706 39 52 62
-0.097656 0.128906 0.124027 41 55 65
-0.093750 0.128906 0.124084 40 54 63
-0.089844 0.128906 0.123964 38 51 60
-0.085938 0.128906 0.123605 34 48 56
-0.082031 0.128906 0.123207 32 46 53
-0.078125 0.128906 0.122784 32 45 53
-0.074219 0.128906 0.122448 33 46 53
-0.070312 0.128906 0.122341 35 49 55
-0.066406 0.128906 0.122266 38 52 57
-0.062500 0.128906 0.122287 40 55 58
-0.058594 0.128906 0.122230 42 56 59
-0.054688 0.128906 0.121931 41 55 57
-0.050781 0.128906 0.121372 33 47 49
-0.046875 0.128906 0.121025 28 40 43
-0.042969 0.128906 0.120784 27 41 43
-0.039062 0.128906 0.120918 24 38 42
-0.035156 0.128906 0.120875 22 36 43
-0.031250 0.128906 0.120477 23 37 45
-0.027344 0.128906 0.120046 23 38 46
-0.023438 0.128906 0.119961 27 42 50
-0.019531 0.128906 0.119978 32 47 53
-0.015625 0.128906 0.119742 34 48 54
-0.011719 0.128906 0.119411 34 47 52
-0.007812 0.128906 0.119231 33 46 51
-0.003906 0.128906 0.119020 34 47 52
0.000000 0.128906 0.118660 34 48 54
0.003906 0.128906 0.117981 35 49 55
0.007812 0.128906 0.117135 35 49 56
0.011719 0.128906 0.116210 35 49 57
0.015625 0.128906 0.115220 35 50 58
0.019531 0.128906 0.114332 35 50 59
0.023438 0.128906 0.113472 34 50 59
0.027344 0.128906 0.112654 35 50 59
0.031250 0.128906 0.111854 35 51 60
0.035156 0.128906 0.111019 36 51 61
0.039062 0.128906 0.109975 37 52 61
0.042969 0.128906 0.108863 37 53 62
0.046875 0.128906 0.107590 39 54 63
0.050781 0.128906 0.106308 40 56 65
0.054688 0.128906 0.105039 42 58 66
0.058594 0.128906 0.103679 43 59 67
0.062500 0.128906 0.102199 42 58 66
0.066406 0.128906 0.100476 42 59 66
0.070312 0.128906 0.098225 43 59 67
0.074219 0.128906 0.095912 37 52 61
0.078125 0.128906 0.093941 38 54 62
0.082031 0.128906 0.092145 46 64 73
0.085938 0.128906 0.089905 46 64 73
0.089844 0.128906 0.087349 43 60 69
0.093750 0.128906 0.084662 45 62 71
0.097656 0.128906 0.081873 43 60 69
0.101562 0.128906 0.079045 42 60 69
0.105469 0.128906 0.076225 43 60 69
0.109375 0.128906 0.073231 40 57 66
0.113281 0.128906 0.070370 43 60 68
0.117188 0.128906 0.067359 47 63 70
0.121094 0.128906 0.064062 49 63 70
0.125000 0.128906 0.060517 52 63 67
0.128906 0.128906 0.056508 51 62 64
0.132812 0.128906 0.051906 52 62 66
0.136719 0.128906 0.047374 51 58 67
0.140625 0.128906 0.042545 47 53 63
0.144531 0.128906 0.036528 43 47 57
0.148438 0.128906 0.029486 39 42 52
0.152344 0.128906 0.022244 38 40 50
0.156250 0.128906 0.015175 38 40 50
0.160156 0.128906 0.007923 44 46 57
0.164062 0.128906 0.000285 51 51 63
0.167969 0.128906 -0.007607 53 54 68
0.171875 0.128906 -0.016509 80 91 104
0.175781 0.128906 -0.026459 114 133 146
0.179688 0.128906 -0.034999 165 174 182
-0.210938 0.125000 0.057504 102 101 114
-0.207031 0.125000 0.064490 82 82 84
-0.203125 0.125000 0.073852 75 66 65
-0.199219 0.125000 0.085456 79 65 64
-0.195312 0.125000 0.098874 83 66 63
-0.191406 0.125000 0.112631 96 74 71
-0.187500 0.125000 0.121655 92 70 67
-0.183594 0.125000 0.127652 109 84 77
-0.179688 0.125000 0.129051 96 76 68
-0.175781 0.125000 0.127178 68 60 57
-0.171875 0.125000 0.123934 45 40 41
-0.167969 0.125000 0.119473 11 11 14
-0.164062 0.125000 0.116067 13 17 21
-0.160156 0.125000 0.114511 42 55 59
-0.156250 0.125000 0.113630 41 55 60
-0.152344 0.125000 0.113507 38 50 57
-0.148438 0.125000 0.115203 39 49 55
-0.144531 0.125000 0.117410 37 47 52
-0.140625 0.125000 0.118748 36 46 53
-0.136719 0.125000 0.119765 34 45 52
-0.132812 0.125000 0.120648 35 47 56
-0.128906 0.125000 0.121512 38 51 61
-0.125000 0.125000 0.122288 39 53 64
-0.121094 0.125000 0.122924 38 52 65
-0.117188 0.125000 0.123252 35 50 63
-0.113281 0.125000 0.123474 34 48 62
-0.109375 0.125000 0.123817 35 49 62
-0.105469 0.125000 0.124063 38 52 64
-0.101562 0.125000 0.124231 41 56 67
-0.097656 0.125000 0.124421 43 58 68
-0.093750 0.125000 0.124389 42 57 67
-0.089844 0.125000 0.124178 39 54 63
-0.085938 0.125000 0.123811 36 50 59
-0.082031 0.125000 0.123393 33 47 56
-0.078125 0.125000 0.122923 32 46 54
-0.074219 0.125000 0.122612 32 45 53
-0.070312 0.125000 0.122226 33 46 53
-0.066406 0.125000 0.121987 32 45 51
-0.062500 0.125000 0.121731 30 42 48
-0.058594 0.125000 0.121406 28 39 44
-0.054688 0.125000 0.120967 26 36 41
-0.050781 0.125000 0.120581 23 33 38
-0.046875 0.125000 0.120260 22 33 38
-0.042969 0.125000 0.120231 25 38 43
-0.039062 0.125000 0.120411 25 39 45
-0.035156 0.125000 0.120574 25 41 48
-0.031250 0.125000 0.120474 28 46 54
-0.027344 0.125000 0.120231 30 48 56
-0.023438 0.125000 0.120073 33 51 58
-0.019531 0.125000 0.119948 35 52 58
-0.015625 0.125000 0.119645 34 49 55
-0.011719 0.125000 0.119204 33 47 53
-0.007812 0.125000 0.118953 33 47 53
-0.003906 0.125000 0.118660 34 47 53
0.000000 0.125000 0.118141 34 49 55
0.003906 0.125000 0.117548 35 50 57
0.007812 0.125000 0.116759 35 50 57
0.011719 0.125000 0.115776 35 50 58
0.015625 0.125000 0.114920 34 49 58
0.019531 0.125000 0.113985 33 48 58
0.023438 0.125000 0.113160 33 48 58
0.027344 0.125000 0.112267 33 48 58
0.031250 0.125000 0.111361 33 48 58
0.035156 0.125000 0.110435 34 48 58
0.039062 0.125000 0.109392 34 49 58
0.042969 0.125000 0.108224 34 49 58
0.046875 0.125000 0.107011 35 50 59
0.050781 0.125000 0.105692 36 51 60
0.054688 0.125000 0.104385 37 53 61
0.058594 0.125000 0.103213 40 55 64
0.062500 0.125000 0.101809 40 56 64
0.066406 0.125000 0.100135 40 56 64
0.070312 0.125000 0.098054 41 57 66
0.074219 0.125000 0.095728 36 51 60
0.078125 0.125000 0.093842 37 52 61
0.082031 0.125000 0.092092 45 62 71
0.085938 0.125000 0.089933 46 63 72
0.089844 0.125000 0.087142 43 60 69
0.093750 0.125000 0.084295 44 61 69
0.097656 0.125000 0.081358 41 58 66
0.101562 0.125000 0.078443 41 58 67
0.105469 0.125000 0.075663 41 59 68
0.109375 0.125000 0.072762 39 56 65
0.113281 0.125000 0.069865 42 58 67
0.117188 0.125000 0.066893 46 62 69
0.121094 0.125000 0.063668 49 63 69
0.125000 0.125000 0.060147 53 63 67
0.128906 0.125000 0.056369 53 63 65
0.132812 0.125000 0.052079 55 64 69
0.136719 0.125000 0.047807 56 63 71
0.140625 0.125000 0.043207 53 59 69
0.144531 0.125000 0.037319 50 55 65
0.148438 0.125000 0.030299 47 51 62
0.152344 0.125000 0.022999 45 49 59
0.156250 0.125000 0.015576 42 45 55
0.160156 0.125000 0.008237 47 48 59
0.164062 0.125000 0.000529 54 54 66
0.167969 0.125000 -0.007329 54 56 69
0.171875 0.125000 -0.016179 70 81 96
0.175781 0.125000 -0.025366 103 122 138
0.179688 0.125000 -0.034301 155 164 177
-0.210938 0.121094 0.051065 123 123 136
-0.207031 0.121094 0.062352 117 117 118
-0.203125 0.121094 0.071225 79 70 71
-0.199219 0.121094 0.082490 79 65 64
-0.195312 0.121094 0.095143 83 66 63
-0.191406 0.121094 0.107882 92 72 68
-0.187500 0.121094 0.116504 88 68 65
-0.183594 0.121094 0.123249 105 82 75
-0.179688 0.121094 0.126649 95 76 69
-0.175781 0.121094 0.127014 71 63 59
-0.171875 0.121094 0.125273 47 42 43
-0.167969 0.121094 0.121130 11 11 14
-0.164062 0.121094 0.117336 13 15 20
-0.160156 0.121094 0.115626 39 51 55
-0.156250 0.121094 0.115071 40 53 59
-0.152344 0.121094 0.115432 41 54 60
-0.148438 0.121094 0.117160 45 57 62
-0.144531 0.121094 0.119032 44 55 60
-0.140625 0.121094 0.120137 43 54 60
-0.136719 0.121094 0.120912 39 51 59
-0.132812 0.121094 0.121439 38 51 60
-0.128906 0.121094 0.122088 38 51 61
-0.125000 0.121094 0.122676 37 51 63
-0.121094 0.121094 0.123262 36 51 63
-0.117188 0.121094 0.123651 35 50 63
-0.113281 0.121094 0.123824 35 49 61
-0.109375 0.121094 0.123979 33 47 59
-0.105469 0.121094 0.124052 33 46 58
-0.101562 0.121094 0.123978 33 45 57
-0.097656 0.121094 0.123951 32 44 55
-0.093750 0.121094 0.123789 32 44 55
-0.089844 0.121094 0.123631 31 43 54
-0.085938 0.121094 0.123247 29 42 52
-0.082031 0.121094 0.122816 28 40 50
-0.078125 0.121094 0.122404 28 40 50
-0.074219 0.121094 0.122020 29 41 50
-0.070312 0.121094 0.121570 29 42 50
-0.066406 0.121094 0.121149 29 41 49
-0.062500 0.121094 0.120748 27 38 46
-0.058594 0.121094 0.120371 24 35 43
-0.054688 0.121094 0.119953 23 34 41
-0.050781 0.121094 0.119653 23 34 42
-0.046875 0.121094 0.119565 25 38 46
-0.042969 0.121094 0.119682 28 43 50
-0.039062 0.121094 0.119917 29 44 51
-0.035156 0.121094 0.120118 30 47 54
-0.031250 0.121094 0.120227 34 51 58
-0.027344 0.121094 0.120125 35 53 59
-0.023438 0.121094 0.119992 36 54 60
-0.019531 0.121094 0.119683 35 52 58
-0.015625 0.121094 0.119346 34 48 56
-0.011719 0.121094 0.118912 33 48 55
-0.007812 0.121094 0.118641 34 48 55
-0.003906 0.121094 0.118176 35 49 56
0.000000 0.121094 0.117580 35 50 57
0.003906 0.121094 0.116945 36 51 58
0.007812 0.121094 0.116097 36 51 58
0.011719 0.121094 0.115256 35 50 58
0.015625 0.121094 0.114346 34 49 58
0.019531 0.121094 0.113460 33 48 57
0.023438 0.121094 0.112606 33 47 57
0.027344 0.121094 0.111731 32 47 57
0.031250 0.121094 0.110826 32 47 57
0.035156 0.121094 0.109768 32 47 56
0.039062 0.121094 0.108645 32 47 57
0.042969 0.121094 0.107366 33 47 57
0.046875 0.121094 0.106045 33 47 57
0.050781 0.121094 0.104710 33 47 57
0.054688 0.121094 0.103516 34 49 58
0.058594 0.121094 0.102360 37 52 61
0.062500 0.121094 0.101166 39 54 62
0.066406 0.121094 0.099487 38 54 62
0.070312 0.121094 0.097404 38 53 63
0.074219 0.121094 0.095098 33 48 57
0.078125 0.121094 0.093263 34 49 58
0.082031 0.121094 0.091691 42 59 68
0.085938 0.121094 0.089618 45 62 71
0.089844 0.121094 0.086885 44 61 69
0.093750 0.121094 0.083797 44 61 69
0.097656 0.121094 0.080594 40 56 65
0.101562 0.121094 0.077581 39 55 65
0.105469 0.121094 0.074697 39 56 66
0.109375 0.121094 0.071869 37 53 63
0.113281 0.121094 0.069125 41 57 67
0.117188 0.121094 0.066287 46 61 69
0.121094 0.121094 0.063126 49 63 69
0.125000 0.121094 0.059750 52 63 67
0.128906 0.121094 0.056147 50 61 63
0.132812 0.121094 0.052215 52 62 66
0.136719 0.121094 0.048229 53 60 69
0.140625 0.121094 0.043958 52 59 69
0.144531 0.121094 0.038278 50 56 67
0.148438 0.121094 0.031377 49 54 65
0.152344 0.121094 0.023904 48 53 64
0.156250 0.121094 0.016376 43 48 59
0.160156 0.121094 0.008646 44 48 59
0.164062 0.121094 0.000892 50 52 63
0.167969 0.121094 -0.006925 51 55 68
0.171875 0.121094 -0.015693 66 79 94
0.175781 0.121094 -0.024306 105 126 142
0.179688 0.121094 -0.033451 159 170 182
-0.210938 0.117188 0.036335 87 86 104
-0.207031 0.117188 0.059819 137 137 138
-0.203125 0.117188 0.069199 86 77 78
-0.199219 0.117188 0.080334 75 64 62
-0.195312 0.117188 0.091939 78 63 60
-0.191406 0.117188 0.102391 84 65 62
-0.187500 0.117188 0.109641 80 62 60
-0.183594 0.117188 0.116725 97 76 71
-0.179688 0.117188 0.122353 92 74 68
-0.175781 0.117188 0.125610 78 69 64
-0.171875 0.117188 0.125702 54 47 48
-0.167969 0.117188 0.122119 12 11 15
-0.164062 0.117188 0.117973 12 14 19
-0.160156 0.117188 0.116218 34 44 48
-0.156250 0.117188 0.116226 39 50 56
-0.152344 0.117188 0.117040 45 58 64
-0.148438 0.117188 0.118807 50 62 67
-0.144531 0.117188 0.120392 44 54 60
-0.140625 0.117188 0.121143 39 49 56
-0.136719 0.117188 0.121675 36 46 54
-0.132812 0.117188 0.122038 34 45 53
-0.128906 0.117188 0.122411 31 43 53
-0.125000 0.117188 0.122867 30 42 53
-0.121094 0.117188 0.123375 30 42 53
-0.117188 0.117188 0.123697 30 42 53
-0.113281 0.117188 0.124013 30 42 53
-0.109375 0.117188 0.124168 28 40 51
-0.105469 0.117188 0.124095 27 38 49
-0.101562 0.117188 0.123956 26 37 47
-0.097656 0.117188 0.123866 26 36 46
-0.093750 0.117188 0.123728 26 37 47
-0.089844 0.117188 0.123552 27 37 48
-0.085938 0.117188 0.123393 27 38 48
-0.082031 0.117188 0.123035 27 38 48
-0.078125 0.117188 0.122642 28 40 49
-0.074219 0.117188 0.122275 29 42 50
-0.070312 0.117188 0.121830 30 43 51
-0.066406 0.117188 0.121357 30 43 51
-0.062500 0.117188 0.120912 29 42 50
-0.058594 0.117188 0.120481 28 41 49
-0.054688 0.117188 0.120123 27 41 49
-0.050781 0.117188 0.119782 28 42 51
-0.046875 0.117188 0.119683 30 45 52
-0.042969 0.117188 0.119690 31 46 54
-0.039062 0.117188 0.119799 31 46 53
-0.035156 0.117188 0.119962 32 47 53
-0.031250 0.117188 0.119978 33 49 55
-0.027344 0.117188 0.119945 33 49 55
-0.023438 0.117188 0.119800 33 48 55
-0.019531 0.117188 0.119602 33 48 55
-0.015625 0.117188 0.119300 34 48 56
-0.011719 0.117188 0.118888 35 49 57
-0.007812 0.117188 0.118457 35 50 58
-0.003906 0.117188 0.117941 36 51 58
0.000000 0.117188 0.117309 36 51 58
0.003906 0.117188 0.116542 36 51 58
0.007812 0.117188 0.115682 36 50 58
0.011719 0.117188 0.114822 35 50 58
0.015625 0.117188 0.114010 35 50 59
0.019531 0.117188 0.113209 35 50 60
0.023438 0.117188 0.112338 35 50 61
0.027344 0.117188 0.111412 34 50 60
0.031250 0.117188 0.110410 34 50 60
0.035156 0.117188 0.109339 34 49 59
0.039062 0.117188 0.108119 34 49 59
0.042969 0.117188 0.106815 34 49 59
0.046875 0.117188 0.105379 33 48 58
0.050781 0.117188 0.103953 33 48 57
0.054688 0.117188 0.102745 33 48 58
0.058594 0.117188 0.101748 37 53 61
0.062500 0.117188 0.100641 39 55 63
0.066406 0.117188 0.098918 38 55 63
0.070312 0.117188 0.096643 36 52 62
0.074219 0.117188 0.094164 31 45 56
0.078125 0.117188 0.092391 31 46 57
0.082031 0.117188 0.091115 41 58 68
0.085938 0.117188 0.089333 46 64 73
0.089844 0.117188 0.086695 47 65 73
0.093750 0.117188 0.083549 47 64 72
0.097656 0.117188 0.080130 41 58 66
0.101562 0.117188 0.076754 39 56 65
0.105469 0.117188 0.073705 38 54 65
0.109375 0.117188 0.070890 37 53 63
0.113281 0.117188 0.068229 43 60 70
0.117188 0.117188 0.065398 48 64 72
0.121094 0.117188 0.062262 50 64 71
0.125000 0.117188 0.058852 51 63 67
0.128906 0.117188 0.055389 47 59 61
0.132812 0.117188 0.051745 47 58 62
0.136719 0.117188 0.048079 48 56 64
0.140625 0.117188 0.043857 48 56 65
0.144531 0.117188 0.038452 47 54 64
0.148438 0.117188 0.031654 47 54 65
0.152344 0.117188 0.024409 47 54 66
0.156250 0.117188 0.016795 44 49 62
0.160156 0.117188 0.008869 43 47 60
0.164062 0.117188 0.000990 44 48 60
0.167969 0.117188 -0.006785 48 52 67
0.171875 0.117188 -0.015394 68 82 98
0.175781 0.117188 -0.023200 111 134 150
0.179688 0.117188 -0.032138 151 166 180
-0.207031 0.113281 0.059203 132 130 130
-0.203125 0.113281 0.068050 95 85 87
-0.199219 0.113281 0.078758 74 64 61
-0.195312 0.113281 0.088587 74 60 55
-0.191406 0.113281 0.096186 74 56 52
-0.187500 0.113281 0.101226 69 53 50
-0.183594 0.113281 0.107769 85 65 61
-0.179688 0.113281 0.115840 84 68 63
-0.175781 0.113281 0.122658 84 74 67
-0.171875 0.113281 0.125163 61 51 51
-0.167969 0.113281 0.122301 12 11 15
-0.164062 0.113281 0.118194 12 14 19
-0.160156 0.113281 0.116401 34 42 46
-0.156250 0.113281 0.116710 40 49 55
-0.152344 0.113281 0.118003 48 59 66
-0.148438 0.113281 0.119811 51 61 67
-0.144531 0.113281 0.121167 41 51 57
-0.140625 0.113281 0.121851 35 44 52
-0.136719 0.113281 0.122214 33 43 52
-0.132812 0.113281 0.122404 32 43 52
-0.128906 0.113281 0.122590 30 41 52
-0.125000 0.113281 0.122877 29 41 52
-0.121094 0.113281 0.123375 29 41 52
-0.117188 0.113281 0.123790 30 43 54
-0.113281 0.113281 0.124052 31 43 55
-0.109375 0.113281 0.124362 31 43 54
-0.105469 0.113281 0.124403 30 43 54
-0.101562 0.113281 0.124451 30 42 54
-0.097656 0.113281 0.124306 30 43 54
-0.093750 0.113281 0.124283 31 43 54
-0.089844 0.113281 0.124205 32 44 55
-0.085938 0.113281 0.124011 32 45 56
-0.082031 0.113281 0.123863 33 45 56
-0.078125 0.113281 0.123621 34 47 57
-0.074219 0.113281 0.123283 36 49 58
-0.070312 0.113281 0.122932 35 49 57
-0.066406 0.113281 0.122463 34 48 56
-0.062500 0.113281 0.122107 34 48 56
-0.058594 0.113281 0.121643 34 49 57
-0.054688 0.113281 0.121240 34 49 57
-0.050781 0.113281 0.120856 35 50 58
-0.046875 0.113281 0.120498 35 50 57
-0.042969 0.113281 0.120361 35 50 56
-0.039062 0.113281 0.120307 35 50 56
-0.035156 0.113281 0.120264 35 49 55
-0.031250 0.113281 0.120150 35 49 55
-0.027344 0.113281 0.120026 34 49 55
-0.023438 0.113281 0.119926 35 49 56
-0.019531 0.113281 0.119739 35 50 57
-0.015625 0.113281 0.119421 37 51 59
-0.011719 0.113281 0.119086 38 53 60
-0.007812 0.113281 0.118556 38 53 61
-0.003906 0.113281 0.118038 39 54 61
0.000000 0.113281 0.117315 38 54 61
0.003906 0.113281 0.116484 38 53 60
0.007812 0.113281 0.115599 37 52 60
0.011719 0.113281 0.114683 37 52 60
0.015625 0.113281 0.113860 37 52 61
0.019531 0.113281 0.112960 37 53 62
0.023438 0.113281 0.112073 37 53 63
0.027344 0.113281 0.110980 37 53 62
0.031250 0.113281 0.110014 36 52 62
0.035156 0.113281 0.108863 36 52 62
0.039062 0.113281 0.107605 36 51 61
0.042969 0.113281 0.106208 35 51 61
0.046875 0.113281 0.104713 34 50 60
0.050781 0.113281 0.103300 34 49 58
0.054688 0.113281 0.102014 34 50 59
0.058594 0.113281 0.101101 37 53 62
0.062500 0.113281 0.099962 39 55 64
0.066406 0.113281 0.098205 38 54 63
0.070312 0.113281 0.095731 34 50 61
0.074219 0.113281 0.093031 28 41 53
0.078125 0.113281 0.091195 29 43 54
0.082031 0.113281 0.090081 38 56 66
0.085938 0.113281 0.088656 47 65 73
0.089844 0.113281 0.086404 50 67 76
0.093750 0.113281 0.083450 50 67 75
0.097656 0.113281 0.079830 43 60 68
0.101562 0.113281 0.076205 39 55 64
0.105469 0.113281 0.072814 36 52 63
0.109375 0.113281 0.069852 35 51 62
0.113281 0.113281 0.067091 43 59 70
0.117188 0.113281 0.064075 47 63 72
0.121094 0.113281 0.060762 49 63 70
0.125000 0.113281 0.057250 50 63 68
0.128906 0.113281 0.053592 46 58 63
0.132812 0.113281 0.049917 46 56 61
0.136719 0.113281 0.046360 47 55 63
0.140625 0.113281 0.042215 48 56 66
0.144531 0.113281 0.036914 48 55 66
0.148438 0.113281 0.030373 48 55 68
0.152344 0.113281 0.023489 49 55 70
0.156250 0.113281 0.016312 46 51 67
0.160156 0.113281 0.008584 43 47 63
0.164062 0.113281 0.000613 42 45 61
0.167969 0.113281 -0.007061 47 50 69
0.171875 0.113281 -0.015232 73 85 104
0.175781 0.113281 -0.022324 125 146 162
0.179688 0.113281 -0.030837 156 169 186
-0.207031 0.109375 0.057244 144 144 139
-0.203125 0.109375 0.066702 95 89 90
-0.199219 0.109375 0.076681 68 60 58
-0.195312 0.109375 0.085397 70 55 50
-0.191406 0.109375 0.090963 65 49 43
-0.187500 0.109375 0.093817 61 45 42
-0.183594 0.109375 0.098873 74 56 51
-0.179688 0.109375 0.108810 75 61 56
-0.175781 0.109375 0.119150 90 78 69
-0.171875 0.109375 0.123375 63 52 50
-0.167969 0.109375 0.121961 11 10 14
-0.164062 0.109375 0.118509 12 14 19
-0.160156 0.109375 0.116845 35 43 47
-0.156250 0.109375 0.117347 40 49 53
-0.152344 0.109375 0.118905 46 54 61
-0.148438 0.109375 0.120760 48 57 64
-0.144531 0.109375 0.122221 44 53 60
-0.140625 0.109375 0.122915 41 50 58
-0.136719 0.109375 0.123269 40 51 60
-0.132812 0.109375 0.123388 38 50 60
-0.128906 0.109375 0.123408 37 50 60
-0.125000 0.109375 0.123632 37 50 61
-0.121094 0.109375 0.123982 37 51 62
-0.117188 0.109375 0.124398 39 53 64
-0.113281 0.109375 0.124775 40 55 65
-0.109375 0.109375 0.125038 40 55 66
-0.105469 0.109375 0.125191 40 55 66
-0.101562 0.109375 0.125155 40 55 66
-0.097656 0.109375 0.125095 41 56 67
-0.093750 0.109375 0.125048 42 57 67
-0.089844 0.109375 0.125140 43 58 67
-0.085938 0.109375 0.124972 43 58 67
-0.082031 0.109375 0.124857 43 57 66
-0.078125 0.109375 0.124682 45 59 67
-0.074219 0.109375 0.124515 47 61 68
-0.070312 0.109375 0.124189 46 60 66
-0.066406 0.109375 0.123685 44 58 64
-0.062500 0.109375 0.123315 43 57 63
-0.058594 0.109375 0.122897 42 58 63
-0.054688 0.109375 0.122388 42 58 63
-0.050781 0.109375 0.121910 42 58 63
-0.046875 0.109375 0.121481 42 57 62
-0.042969 0.109375 0.121246 41 57 61
-0.039062 0.109375 0.121024 41 56 61
-0.035156 0.109375 0.120860 41 56 61
-0.031250 0.109375 0.120728 41 56 61
-0.027344 0.109375 0.120579 41 57 62
-0.023438 0.109375 0.120364 41 57 62
-0.019531 0.109375 0.120203 41 57 63
-0.015625 0.109375 0.119905 42 57 64
-0.011719 0.109375 0.119483 42 57 64
-0.007812 0.109375 0.119041 42 57 64
-0.003906 0.109375 0.118394 42 57 64
0.000000 0.109375 0.117615 41 57 63
0.003906 0.109375 0.116712 41 56 63
0.007812 0.109375 0.115762 40 55 62
0.011719 0.109375 0.114759 39 54 61
0.015625 0.109375 0.113846 38 53 61
0.019531 0.109375 0.112877 38 53 61
0.023438 0.109375 0.111877 37 53 62
0.027344 0.109375 0.110828 37 52 62
0.031250 0.109375 0.109697 37 52 62
0.035156 0.109375 0.108422 37 52 62
0.039062 0.109375 0.107139 36 52 61
0.042969 0.109375 0.105679 36 51 61
0.046875 0.109375 0.104191 35 50 60
0.050781 0.109375 0.102682 34 49 59
0.054688 0.109375 0.101382 35 50 59
0.058594 0.109375 0.100414 37 53 61
0.062500 0.109375 0.099318 38 55 63
0.066406 0.109375 0.097625 38 55 63
0.070312 0.109375 0.095004 33 49 59
0.074219 0.109375 0.092101 26 38 49
0.078125 0.109375 0.090133 25 38 49
0.082031 0.109375 0.089136 35 51 61
0.085938 0.109375 0.088037 45 62 71
0.089844 0.109375 0.086140 51 68 76
0.093750 0.109375 0.083368 53 70 78
0.097656 0.109375 0.079649 46 63 71
0.101562 0.109375 0.075753 40 56 65
0.105469 0.109375 0.072073 36 52 62
0.109375 0.109375 0.068865 35 51 62
0.113281 0.109375 0.066066 42 59 70
0.117188 0.109375 0.062867 45 61 71
0.121094 0.109375 0.059277 46 61 69
0.125000 0.109375 0.055603 47 61 68
0.128906 0.109375 0.051726 44 57 64
0.132812 0.109375 0.047896 44 55 63
0.136719 0.109375 0.044254 44 53 64
0.140625 0.109375 0.040184 45 53 66
0.144531 0.109375 0.035202 44 52 65
0.148438 0.109375 0.029057 44 51 66
0.152344 0.109375 0.022380 44 51 67
0.156250 0.109375 0.015782 42 48 65
0.160156 0.109375 0.008251 40 45 63
0.164062 0.109375 0.000385 39 43 61
0.167969 0.109375 -0.007299 42 46 65
0.171875 0.109375 -0.015157 62 73 93
0.175781 0.109375 -0.021580 109 130 149
0.179688 0.109375 -0.029007 138 152 174
-0.207031 0.105469 0.053266 157 158 158
-0.203125 0.105469 0.064598 90 88 92
-0.199219 0.105469 0.073307 63 57 56
-0.195312 0.105469 0.081888 67 54 47
-0.191406 0.105469 0.086819 61 45 39
-0.187500 0.105469 0.088627 57 42 36
-0.183594 0.105469 0.092260 68 50 44
-0.179688 0.105469 0.101677 73 58 52
-0.175781 0.105469 0.114681 100 84 71
-0.171875 0.105469 0.120604 66 52 50
-0.167969 0.105469 0.120918 13 12 16
-0.164062 0.105469 0.119022 19 21 27
-0.160156 0.105469 0.117877 46 55 59
-0.156250 0.105469 0.118527 44 52 57
-0.152344 0.105469 0.119963 46 54 61
-0.148438 0.105469 0.122042 51 59 67
-0.144531 0.105469 0.123706 53 62 69
-0.140625 0.105469 0.124492 54 64 72
-0.136719 0.105469 0.124880 54 66 74
-0.132812 0.105469 0.124750 53 65 74
-0.128906 0.105469 0.124792 52 66 75
-0.125000 0.105469 0.124877 52 67 76
-0.121094 0.105469 0.125102 52 67 76
-0.117188 0.105469 0.125474 53 68 77
-0.113281 0.105469 0.125740 53 69 78
-0.109375 0.105469 0.126004 52 68 77
-0.105469 0.105469 0.126083 51 67 76
-0.101562 0.105469 0.126081 51 66 75
-0.097656 0.105469 0.126038 51 66 74
-0.093750 0.105469 0.126122 53 67 75
-0.089844 0.105469 0.126161 55 68 75
-0.085938 0.105469 0.126137 55 68 75
-0.082031 0.105469 0.126078 54 67 73
-0.078125 0.105469 0.125977 55 69 73
-0.074219 0.105469 0.125786 57 70 74
-0.070312 0.105469 0.125502 56 69 72
-0.066406 0.105469 0.125060 54 67 69
-0.062500 0.105469 0.124650 52 65 68
-0.058594 0.105469 0.124188 51 65 67
-0.054688 0.105469 0.123675 50 64 67
-0.050781 0.105469 0.123142 49 64 66
-0.046875 0.105469 0.122726 49 64 66
-0.042969 0.105469 0.122317 48 63 65
-0.039062 0.105469 0.122003 48 63 66
-0.035156 0.105469 0.121716 47 62 65
-0.031250 0.105469 0.121466 47 62 66
-0.027344 0.105469 0.121212 47 63 66
-0.023438 0.105469 0.121022 47 62 67
-0.019531 0.105469 0.120808 47 62 67
-0.015625 0.105469 0.120485 46 62 67
-0.011719 0.105469 0.120074 46 61 67
-0.007812 0.105469 0.119530 46 61 67
-0.003906 0.105469 0.118863 46 61 67
0.000000 0.105469 0.118081 45 60 66
0.003906 0.105469 0.117202 44 59 65
0.007812 0.105469 0.116148 43 58 64
0.011719 0.105469 0.115127 42 57 63
0.015625 0.105469 0.114066 41 56 63
0.019531 0.105469 0.113070 41 55 63
0.023438 0.105469 0.111948 40 54 63
0.027344 0.105469 0.110675 39 54 63
0.031250 0.105469 0.109547 39 54 63
0.035156 0.105469 0.108268 38 53 62
0.039062 0.105469 0.106863 37 52 62
0.042969 0.105469 0.105357 36 51 61
0.046875 0.105469 0.103802 36 51 60
0.050781 0.105469 0.102183 35 49 58
0.054688 0.105469 0.100829 35 50 58
0.058594 0.105469 0.099795 37 52 60
0.062500 0.105469 0.098777 38 54 62
0.066406 0.105469 0.097033 39 56 65
0.070312 0.105469 0.094456 36 52 63
0.074219 0.105469 0.091410 27 39 51
0.078125 0.105469 0.089370 26 39 50
0.082031 0.105469 0.088575 36 52 62
0.085938 0.105469 0.087560 45 63 71
0.089844 0.105469 0.085884 51 68 76
0.093750 0.105469 0.083172 53 70 78
0.097656 0.105469 0.079458 48 65 72
0.101562 0.105469 0.075304 42 58 67
0.105469 0.105469 0.071376 38 54 64
0.109375 0.105469 0.068040 38 55 66
0.113281 0.105469 0.064952 45 63 74
0.117188 0.105469 0.061800 47 63 73
0.121094 0.105469 0.058095 46 62 70
0.125000 0.105469 0.054282 47 62 69
0.128906 0.105469 0.050355 45 58 66
0.132812 0.105469 0.046396 46 57 67
0.136719 0.105469 0.042598 45 54 66
0.140625 0.105469 0.038503 44 53 66
0.144531 0.105469 0.033724 43 52 65
0.148438 0.105469 0.027884 43 53 66
0.152344 0.105469 0.021578 43 52 67
0.156250 0.105469 0.015293 41 50 66
0.160156 0.105469 0.008077 42 50 66
0.164062 0.105469 0.000270 42 50 67
0.167969 0.105469 -0.007489 43 50 69
0.171875 0.105469 -0.015098 58 72 91
0.175781 0.105469 -0.020733 94 115 135
0.179688 0.105469 -0.026355 129 146 165
-0.207031 0.101562 0.043244 157 160 166
-0.203125 0.101562 0.063655 90 93 100
-0.199219 0.101562 0.069516 61 58 57
-0.195312 0.101562 0.077967 67 55 49
-0.191406 0.101562 0.082734 61 46 38
-0.187500 0.101562 0.085210 57 42 34
-0.183594 0.101562 0.088581 65 47 40
-0.179688 0.101562 0.096347 69 54 47
-0.175781 0.101562 0.109941 92 77 65
-0.171875 0.101562 0.117236 54 44 44
-0.167969 0.101562 0.119094 16 15 19
-0.164062 0.101562 0.118813 32 34 40
-0.160156 0.101562 0.118377 60 69 73
-0.156250 0.101562 0.119426 50 59 66
-0.152344 0.101562 0.121136 54 63 71
-0.148438 0.101562 0.123327 61 71 79
-0.144531 0.101562 0.124968 64 74 82
-0.140625 0.101562 0.125815 65 75 84
-0.136719 0.101562 0.126068 65 77 86
-0.132812 0.101562 0.125963 64 76 86
-0.128906 0.101562 0.125747 62 76 85
-0.125000 0.101562 0.125715 61 75 84
-0.121094 0.101562 0.125849 59 74 82
-0.117188 0.101562 0.126118 58 73 82
-0.113281 0.101562 0.126351 58 72 81
-0.109375 0.101562 0.126562 56 71 79
-0.105469 0.101562 0.126629 55 69 78
-0.101562 0.101562 0.126621 53 67 76
-0.097656 0.101562 0.126615 52 66 74
-0.093750 0.101562 0.126701 53 67 73
-0.089844 0.101562 0.126883 56 68 75
-0.085938 0.101562 0.126918 56 68 75
-0.082031 0.101562 0.126854 55 67 73
-0.078125 0.101562 0.126790 57 69 74
-0.074219 0.101562 0.126691 59 71 76
-0.070312 0.101562 0.126389 58 71 74
-0.066406 0.101562 0.126030 56 69 73
-0.062500 0.101562 0.125593 55 68 71
-0.058594 0.101562 0.125158 55 69 71
-0.054688 0.101562 0.124565 54 69 71
-0.050781 0.101562 0.124063 54 69 71
-0.046875 0.101562 0.123503 54 69 71
-0.042969 0.101562 0.123073 53 68 71
-0.039062 0.101562 0.122731 53 68 71
-0.035156 0.101562 0.122375 53 68 71
-0.031250 0.101562 0.121984 53 68 71
-0.027344 0.101562 0.121643 53 68 72
-0.023438 0.101562 0.121445 52 68 72
-0.019531 0.101562 0.121206 52 67 72
-0.015625 0.101562 0.120859 51 67 72
-0.011719 0.101562 0.120411 51 66 72
-0.007812 0.101562 0.119879 50 66 71
-0.003906 0.101562 0.119213 50 65 71
0.000000 0.101562 0.118462 49 64 70
0.003906 0.101562 0.117515 48 63 69
0.007812 0.101562 0.116486 47 62 68
0.011719 0.101562 0.115483 46 61 68
0.015625 0.101562 0.114407 45 61 67
0.019531 0.101562 0.113322 44 60 67
0.023438 0.101562 0.112177 43 59 67
0.027344 0.101562 0.110928 42 58 66
0.031250 0.101562 0.109672 41 57 65
0.035156 0.101562 0.108264 40 55 64
0.039062 0.101562 0.106839 39 54 63
0.042969 0.101562 0.105311 38 53 62
0.046875 0.101562 0.103684 37 52 61
0.050781 0.101562 0.102055 36 51 59
0.054688 0.101562 0.100584 36 51 59
0.058594 0.101562 0.099423 37 52 60
0.062500 0.101562 0.098219 37 53 60
0.066406 0.101562 0.096503 40 58 66
0.070312 0.101562 0.094011 39 56 67
0.074219 0.101562 0.090971 30 44 56
0.078125 0.101562 0.088947 30 45 56
0.082031 0.101562 0.088142 41 59 68
0.085938 0.101562 0.087299 48 66 74
0.089844 0.101562 0.085717 51 68 76
0.093750 0.101562 0.083125 52 68 76
0.097656 0.101562 0.079359 47 63 71
0.101562 0.101562 0.074943 42 58 66
0.105469 0.101562 0.070780 39 55 64
0.109375 0.101562 0.067145 40 57 67
0.113281 0.101562 0.064066 46 64 74
0.117188 0.101562 0.060917 47 64 73
0.121094 0.101562 0.057351 47 63 71
0.125000 0.101562 0.053646 48 64 71
0.128906 0.101562 0.049783 47 63 70
0.132812 0.101562 0.045687 48 62 71
0.136719 0.101562 0.041652 47 61 70
0.140625 0.101562 0.037459 46 60 71
0.144531 0.101562 0.032910 45 59 70
0.148438 0.101562 0.027313 46 61 72
0.152344 0.101562 0.021302 47 61 75
0.156250 0.101562 0.015296 47 61 76
0.160156 0.101562 0.008303 49 63 79
0.164062 0.101562 0.000550 51 64 82
0.167969 0.101562 -0.007359 51 64 83
0.171875 0.101562 -0.014734 71 88 110
0.175781 0.101562 -0.019997 105 124 145
0.179688 0.101562 -0.024177 152 169 182
-0.203125 0.097656 0.060046 116 123 125
-0.199219 0.097656 0.066049 65 63 63
-0.195312 0.097656 0.073524 69 59 53
-0.191406 0.097656 0.078865 64 50 42
-0.187500 0.097656 0.082534 60 44 36
-0.183594 0.097656 0.086448 66 47 38
-0.179688 0.097656 0.093179 70 53 45
-0.175781 0.097656 0.104796 83 68 58
-0.171875 0.097656 0.112981 52 46 44
-0.167969 0.097656 0.116212 25 25 28
-0.164062 0.097656 0.117477 44 47 51
-0.160156 0.097656 0.117996 60 68 73
-0.156250 0.097656 0.119807 51 61 69
-0.152344 0.097656 0.122260 58 67 77
-0.148438 0.097656 0.124426 65 76 85
-0.144531 0.097656 0.125917 65 76 85
-0.140625 0.097656 0.126641 64 75 85
-0.136719 0.097656 0.126998 66 78 88
-0.132812 0.097656 0.126891 65 78 87
-0.128906 0.097656 0.126655 61 75 84
-0.125000 0.097656 0.126532 58 72 81
-0.121094 0.097656 0.126585 56 69 79
-0.117188 0.097656 0.126827 55 69 78
-0.113281 0.097656 0.127032 55 69 77
-0.109375 0.097656 0.127254 54 68 76
-0.105469 0.097656 0.127370 54 67 76
-0.101562 0.097656 0.127347 53 66 74
-0.097656 0.097656 0.127430 52 65 72
-0.093750 0.097656 0.127573 53 66 73
-0.089844 0.097656 0.127767 56 69 75
-0.085938 0.097656 0.127766 56 69 75
-0.082031 0.097656 0.127664 55 68 74
-0.078125 0.097656 0.127579 56 69 75
-0.074219 0.097656 0.127399 58 71 77
-0.070312 0.097656 0.127191 57 71 76
-0.066406 0.097656 0.126820 56 69 75
-0.062500 0.097656 0.126410 55 69 74
-0.058594 0.097656 0.125948 55 70 74
-0.054688 0.097656 0.125400 54 69 73
-0.050781 0.097656 0.124755 54 69 73
-0.046875 0.097656 0.124242 54 69 73
-0.042969 0.097656 0.123715 54 69 73
-0.039062 0.097656 0.123379 54 70 73
-0.035156 0.097656 0.122961 54 69 73
-0.031250 0.097656 0.122452 54 69 73
-0.027344 0.097656 0.122134 54 69 73
-0.023438 0.097656 0.121834 53 69 73
-0.019531 0.097656 0.121547 53 69 74
-0.015625 0.097656 0.121262 52 68 73
-0.011719 0.097656 0.120836 51 67 73
-0.007812 0.097656 0.120156 51 67 72
-0.003906 0.097656 0.119582 50 66 72
0.000000 0.097656 0.118798 50 66 72
0.003906 0.097656 0.117994 50 65 71
0.007812 0.097656 0.117063 49 65 71
0.011719 0.097656 0.116049 49 64 70
0.015625 0.097656 0.115100 48 64 70
0.019531 0.097656 0.114076 47 63 70
0.023438 0.097656 0.112945 47 62 69
0.027344 0.097656 0.111722 46 61 69
0.031250 0.097656 0.110455 44 60 68
0.035156 0.097656 0.109088 43 59 67
0.039062 0.097656 0.107697 42 58 66
0.042969 0.097656 0.106049 41 56 65
0.046875 0.097656 0.104517 41 56 64
0.050781 0.097656 0.102762 40 55 63
0.054688 0.097656 0.101134 39 54 62
0.058594 0.097656 0.099804 40 55 62
0.062500 0.097656 0.098332 39 54 61
0.066406 0.097656 0.096570 42 59 67
0.070312 0.097656 0.093953 40 57 67
0.074219 0.097656 0.090941 31 44 56
0.078125 0.097656 0.088918 32 47 57
0.082031 0.097656 0.088152 44 62 71
0.085938 0.097656 0.087429 51 69 76
0.089844 0.097656 0.085907 53 70 78
0.093750 0.097656 0.083340 55 71 79
0.097656 0.097656 0.079553 50 66 74
0.101562 0.097656 0.074974 44 60 68
0.105469 0.097656 0.070465 40 55 64
0.109375 0.097656 0.066593 39 55 65
0.113281 0.097656 0.063360 43 59 70
0.117188 0.097656 0.060292 44 60 71
0.121094 0.097656 0.057119 46 62 71
0.125000 0.097656 0.053739 48 65 74
0.128906 0.097656 0.050104 49 67 75
0.132812 0.097656 0.046061 50 67 76
0.136719 0.097656 0.041985 49 66 75
0.140625 0.097656 0.037733 49 66 76
0.144531 0.097656 0.033142 48 65 76
0.148438 0.097656 0.027695 49 67 78
0.152344 0.097656 0.021806 51 68 82
0.156250 0.097656 0.015916 53 70 85
0.160156 0.097656 0.008972 55 72 88
0.164062 0.097656 0.001349 57 74 91
0.167969 0.097656 -0.006609 57 72 93
0.171875 0.097656 -0.013948 81 99 121
0.175781 0.097656 -0.018930 112 130 152
0.179688 0.097656 -0.022851 144 164 180
-0.203125 0.093750 0.047730 127 136 127
-0.199219 0.093750 0.061989 73 69 67
-0.195312 0.093750 0.068889 75 62 59
-0.191406 0.093750 0.075161 70 54 47
-0.187500 0.093750 0.079702 62 46 38
-0.183594 0.093750 0.084290 65 46 37
-0.179688 0.093750 0.090521 69 51 42
-0.175781 0.093750 0.099767 63 50 45
-0.171875 0.093750 0.108072 45 39 41
-0.167969 0.093750 0.113124 40 41 44
-0.164062 0.093750 0.116050 52 57 61
-0.160156 0.093750 0.117739 54 63 70
-0.156250 0.093750 0.120011 52 62 71
-0.152344 0.093750 0.122695 57 68 77
-0.148438 0.093750 0.125007 63 74 84
-0.144531 0.093750 0.126353 62 74 84
-0.140625 0.093750 0.127101 61 73 83
-0.136719 0.093750 0.127488 64 76 86
-0.132812 0.093750 0.127463 63 76 86
-0.128906 0.093750 0.127295 61 74 83
-0.125000 0.093750 0.127156 58 72 81
-0.121094 0.093750 0.127237 56 70 79
-0.117188 0.093750 0.127578 56 70 79
-0.113281 0.093750 0.127810 56 70 79
-0.109375 0.093750 0.128013 55 69 78
-0.105469 0.093750 0.128222 55 69 78
-0.101562 0.093750 0.128178 54 68 76
-0.097656 0.093750 0.128305 53 67 75
-0.093750 0.093750 0.128575 57 70 77
-0.089844 0.093750 0.128776 60 73 80
-0.085938 0.093750 0.128663 60 73 80
-0.082031 0.093750 0.128465 57 70 77
-0.078125 0.093750 0.128232 57 71 77
-0.074219 0.093750 0.128079 59 73 79
-0.070312 0.093750 0.127800 58 72 78
-0.066406 0.093750 0.127451 57 71 77
-0.062500 0.093750 0.127106 57 72 77
-0.058594 0.093750 0.126593 56 71 76
-0.054688 0.093750 0.126069 54 70 74
-0.050781 0.093750 0.125411 53 69 73
-0.046875 0.093750 0.124796 52 68 72
-0.042969 0.093750 0.124248 52 68 71
-0.039062 0.093750 0.123760 52 68 71
-0.035156 0.093750 0.123317 51 67 71
-0.031250 0.093750 0.122797 51 67 70
-0.027344 0.093750 0.122370 51 67 70
-0.023438 0.093750 0.122031 51 67 71
-0.019531 0.093750 0.121697 51 67 72
-0.015625 0.093750 0.121408 51 66 71
-0.011719 0.093750 0.120877 50 65 71
-0.007812 0.093750 0.120215 49 65 71
