ply
    format ascii 1.0
    element vertex 66818
    property float x
    property float y
    property float z
    property uchar red
    property uchar green
    property uchar blue
    end_header
0.152344 0.339844 -0.126984 77 72 87
0.156250 0.339844 -0.128626 73 70 82
0.160156 0.339844 -0.129526 77 74 84
0.164062 0.339844 -0.129856 54 51 64
0.167969 0.339844 -0.130028 61 59 76
0.171875 0.339844 -0.129609 80 77 92
0.175781 0.339844 -0.128696 128 124 133
0.179688 0.339844 -0.127176 144 141 145
0.183594 0.339844 -0.125374 148 145 149
0.187500 0.339844 -0.123846 154 152 155
0.191406 0.339844 -0.121960 162 160 162
0.195312 0.339844 -0.119520 170 169 170
0.199219 0.339844 -0.117603 177 176 176
0.203125 0.339844 -0.115489 183 182 183
0.207031 0.339844 -0.113735 188 188 188
0.210938 0.339844 -0.111788 190 189 190
0.214844 0.339844 -0.110728 193 191 193
0.218750 0.339844 -0.108091 201 196 200
0.222656 0.339844 -0.104027 200 190 200
-0.230469 0.335938 -0.013182 195 153 123
-0.226562 0.335938 -0.018764 191 132 101
-0.222656 0.335938 -0.023155 211 149 114
-0.218750 0.335938 -0.026394 220 158 124
-0.214844 0.335938 -0.028750 226 165 131
-0.210938 0.335938 -0.030777 230 170 136
-0.207031 0.335938 -0.032502 234 176 142
-0.203125 0.335938 -0.033968 236 181 146
-0.199219 0.335938 -0.034598 238 182 147
-0.195312 0.335938 -0.034687 239 185 150
-0.191406 0.335938 -0.034996 241 190 154
-0.187500 0.335938 -0.035110 242 192 156
-0.183594 0.335938 -0.034692 242 193 156
-0.179688 0.335938 -0.033828 241 190 154
-0.175781 0.335938 -0.033125 239 182 146
-0.171875 0.335938 -0.032156 234 174 139
-0.167969 0.335938 -0.030295 226 160 131
-0.164062 0.335938 -0.028097 210 142 119
-0.160156 0.335938 -0.023264 192 131 115
-0.156250 0.335938 -0.019564 163 110 102
-0.152344 0.335938 -0.020774 126 88 81
-0.148438 0.335938 -0.030174 128 108 103
-0.144531 0.335938 -0.043528 118 114 119
-0.140625 0.335938 -0.053407 77 75 83
-0.136719 0.335938 -0.061038 59 58 65
-0.132812 0.335938 -0.066863 67 66 76
-0.128906 0.335938 -0.071432 64 61 71
-0.125000 0.335938 -0.075751 67 64 74
-0.121094 0.335938 -0.079741 69 67 77
-0.117188 0.335938 -0.082933 73 71 81
-0.113281 0.335938 -0.085911 75 72 83
-0.109375 0.335938 -0.088695 77 74 85
-0.105469 0.335938 -0.091063 80 77 88
-0.101562 0.335938 -0.093134 82 79 90
-0.097656 0.335938 -0.095175 76 73 84
-0.093750 0.335938 -0.097176 75 72 83
-0.089844 0.335938 -0.099038 74 71 82
-0.085938 0.335938 -0.101010 72 69 80
-0.082031 0.335938 -0.102861 70 67 78
-0.078125 0.335938 -0.104615 68 65 76
-0.074219 0.335938 -0.105861 66 63 74
-0.070312 0.335938 -0.106844 66 63 74
-0.066406 0.335938 -0.107764 63 60 71
-0.062500 0.335938 -0.108613 63 60 71
-0.058594 0.335938 -0.109335 63 60 71
-0.054688 0.335938 -0.110192 63 60 71
-0.050781 0.335938 -0.110917 63 60 71
-0.046875 0.335938 -0.111717 63 60 71
-0.042969 0.335938 -0.112500 63 60 71
-0.039062 0.335938 -0.113343 63 60 71
-0.035156 0.335938 -0.114189 63 60 71
-0.031250 0.335938 -0.115028 63 60 71
-0.027344 0.335938 -0.116257 62 59 70
-0.023438 0.335938 -0.117452 60 57 68
-0.019531 0.335938 -0.118714 59 56 67
-0.015625 0.335938 -0.119948 58 55 66
-0.011719 0.335938 -0.121216 57 54 65
-0.007812 0.335938 -0.122307 56 53 64
-0.003906 0.335938 -0.123354 61 58 69
0.000000 0.335938 -0.124161 64 61 72
0.003906 0.335938 -0.124792 68 65 76
0.007812 0.335938 -0.125325 69 66 77
0.011719 0.335938 -0.125580 68 65 76
0.015625 0.335938 -0.125813 66 63 74
0.019531 0.335938 -0.125900 65 62 73
0.023438 0.335938 -0.125870 65 62 73
0.027344 0.335938 -0.125740 69 66 77
0.031250 0.335938 -0.125471 69 66 77
0.035156 0.335938 -0.124881 69 66 77
0.039062 0.335938 -0.124296 69 66 77
0.042969 0.335938 -0.123470 69 66 77
0.046875 0.335938 -0.122668 69 66 77
0.050781 0.335938 -0.121704 69 66 77
0.054688 0.335938 -0.120800 69 66 77
0.058594 0.335938 -0.119859 68 65 76
0.062500 0.335938 -0.118756 68 65 76
0.066406 0.335938 -0.117692 68 65 76
0.070312 0.335938 -0.116698 68 65 76
0.074219 0.335938 -0.115536 68 65 76
0.078125 0.335938 -0.114400 69 66 77
0.082031 0.335938 -0.113383 69 66 78
0.085938 0.335938 -0.112441 69 66 78
0.089844 0.335938 -0.111176 70 67 79
0.093750 0.335938 -0.109799 72 68 80
0.097656 0.335938 -0.107677 75 71 83
0.101562 0.335938 -0.105247 77 73 85
0.105469 0.335938 -0.102338 78 74 86
0.109375 0.335938 -0.099529 77 73 85
0.113281 0.335938 -0.096948 75 71 83
0.117188 0.335938 -0.094825 74 70 82
0.121094 0.335938 -0.093632 73 69 81
0.125000 0.335938 -0.093600 74 70 82
0.128906 0.335938 -0.104217 75 70 85
0.132812 0.335938 -0.112747 74 69 84
0.136719 0.335938 -0.117851 71 66 81
0.140625 0.335938 -0.121636 69 64 80
0.144531 0.335938 -0.124159 68 63 79
0.148438 0.335938 -0.125851 69 64 79
0.152344 0.335938 -0.127463 74 70 85
0.156250 0.335938 -0.128840 71 68 79
0.160156 0.335938 -0.129644 75 71 81
0.164062 0.335938 -0.130090 55 52 63
0.167969 0.335938 -0.130233 61 59 74
0.171875 0.335938 -0.129840 72 70 84
0.175781 0.335938 -0.128963 116 112 122
0.179688 0.335938 -0.127503 137 133 138
0.183594 0.335938 -0.125809 143 140 144
0.187500 0.335938 -0.124339 149 147 150
0.191406 0.335938 -0.122266 158 156 158
0.195312 0.335938 -0.119757 168 166 167
0.199219 0.335938 -0.117691 175 174 175
0.203125 0.335938 -0.115797 182 181 182
0.207031 0.335938 -0.114060 187 187 187
0.210938 0.335938 -0.111803 189 188 189
0.214844 0.335938 -0.110280 192 190 191
0.218750 0.335938 -0.108628 197 192 195
0.222656 0.335938 -0.105407 209 201 207
-0.234375 0.332031 -0.004561 213 151 116
-0.230469 0.332031 -0.012133 196 153 123
-0.226562 0.332031 -0.018051 193 134 102
-0.222656 0.332031 -0.022572 213 151 116
-0.218750 0.332031 -0.025806 221 159 125
-0.214844 0.332031 -0.028260 227 167 133
-0.210938 0.332031 -0.030207 231 172 138
-0.207031 0.332031 -0.032038 234 178 144
-0.203125 0.332031 -0.033429 237 183 148
-0.199219 0.332031 -0.034084 238 184 149
-0.195312 0.332031 -0.034169 240 187 152
-0.191406 0.332031 -0.034394 242 192 156
-0.187500 0.332031 -0.034540 242 193 158
-0.183594 0.332031 -0.034023 243 194 158
-0.179688 0.332031 -0.032934 242 192 156
-0.175781 0.332031 -0.032168 239 184 149
-0.171875 0.332031 -0.031150 235 176 141
-0.167969 0.332031 -0.028988 227 162 132
-0.164062 0.332031 -0.026633 210 144 121
-0.160156 0.332031 -0.021363 193 133 117
-0.156250 0.332031 -0.017151 163 112 105
-0.152344 0.332031 -0.018164 125 86 79
-0.148438 0.332031 -0.028121 134 114 109
-0.144531 0.332031 -0.042422 89 86 91
-0.140625 0.332031 -0.052811 72 71 79
-0.136719 0.332031 -0.060406 63 62 69
-0.132812 0.332031 -0.066358 67 65 75
-0.128906 0.332031 -0.070948 64 61 71
-0.125000 0.332031 -0.075411 66 63 73
-0.121094 0.332031 -0.079149 69 67 76
-0.117188 0.332031 -0.082421 72 70 80
-0.113281 0.332031 -0.085322 75 72 82
-0.109375 0.332031 -0.088055 77 74 85
-0.105469 0.332031 -0.090458 80 77 87
-0.101562 0.332031 -0.092474 82 79 90
-0.097656 0.332031 -0.094358 76 73 84
-0.093750 0.332031 -0.096291 75 72 83
-0.089844 0.332031 -0.098043 74 71 82
-0.085938 0.332031 -0.099958 72 69 80
-0.082031 0.332031 -0.101710 70 67 78
-0.078125 0.332031 -0.103292 68 65 76
-0.074219 0.332031 -0.104573 66 63 74
-0.070312 0.332031 -0.105639 65 62 73
-0.066406 0.332031 -0.106463 65 62 73
-0.062500 0.332031 -0.107424 64 61 72
-0.058594 0.332031 -0.108286 64 61 72
-0.054688 0.332031 -0.109100 63 60 71
-0.050781 0.332031 -0.109993 62 59 70
-0.046875 0.332031 -0.110803 62 59 70
-0.042969 0.332031 -0.111652 61 58 69
-0.039062 0.332031 -0.112492 61 58 69
-0.035156 0.332031 -0.113334 62 59 70
-0.031250 0.332031 -0.114246 62 59 70
-0.027344 0.332031 -0.115387 61 58 69
-0.023438 0.332031 -0.116677 60 57 68
-0.019531 0.332031 -0.117917 59 56 67
-0.015625 0.332031 -0.119178 58 55 66
-0.011719 0.332031 -0.120370 57 54 65
-0.007812 0.332031 -0.121367 56 53 64
-0.003906 0.332031 -0.122443 61 58 69
0.000000 0.332031 -0.123233 64 61 72
0.003906 0.332031 -0.123878 67 64 75
0.007812 0.332031 -0.124384 69 66 77
0.011719 0.332031 -0.124706 68 65 76
0.015625 0.332031 -0.124958 66 63 74
0.019531 0.332031 -0.124933 65 62 73
0.023438 0.332031 -0.124982 66 63 74
0.027344 0.332031 -0.124720 68 65 76
0.031250 0.332031 -0.124486 68 65 76
0.035156 0.332031 -0.124067 68 65 76
0.039062 0.332031 -0.123421 69 66 77
0.042969 0.332031 -0.122807 69 66 77
0.046875 0.332031 -0.121836 69 66 77
0.050781 0.332031 -0.121050 69 66 77
0.054688 0.332031 -0.120037 69 66 77
0.058594 0.332031 -0.119032 69 66 77
0.062500 0.332031 -0.118207 69 66 77
0.066406 0.332031 -0.117089 69 66 77
0.070312 0.332031 -0.115931 69 66 77
0.074219 0.332031 -0.114841 69 66 77
0.078125 0.332031 -0.113758 69 66 77
0.082031 0.332031 -0.112799 69 66 78
0.085938 0.332031 -0.111771 69 66 78
0.089844 0.332031 -0.110615 69 66 78
0.093750 0.332031 -0.109198 72 68 80
0.097656 0.332031 -0.107064 74 70 82
0.101562 0.332031 -0.104606 77 73 85
0.105469 0.332031 -0.101672 78 74 86
0.109375 0.332031 -0.098911 77 73 85
0.113281 0.332031 -0.096374 76 72 84
0.117188 0.332031 -0.094117 74 70 82
0.121094 0.332031 -0.092865 74 70 82
0.125000 0.332031 -0.092029 75 71 83
0.128906 0.332031 -0.103385 76 71 86
0.132812 0.332031 -0.112719 75 70 85
0.136719 0.332031 -0.118078 72 67 82
0.140625 0.332031 -0.121973 70 65 81
0.144531 0.332031 -0.124392 70 65 80
0.148438 0.332031 -0.126393 70 65 79
0.152344 0.332031 -0.127641 72 68 82
0.156250 0.332031 -0.129347 70 67 78
0.160156 0.332031 -0.130077 72 69 78
0.164062 0.332031 -0.130665 60 57 67
0.167969 0.332031 -0.130764 67 65 79
0.171875 0.332031 -0.130290 69 67 82
0.175781 0.332031 -0.129670 102 100 110
0.179688 0.332031 -0.127788 129 125 131
0.183594 0.332031 -0.126203 138 135 140
0.187500 0.332031 -0.124405 144 142 145
0.191406 0.332031 -0.122568 153 151 153
0.195312 0.332031 -0.120021 163 162 163
0.199219 0.332031 -0.117978 172 171 172
0.203125 0.332031 -0.116032 179 179 179
0.207031 0.332031 -0.114245 184 184 184
0.210938 0.332031 -0.112323 186 186 186
0.214844 0.332031 -0.109961 189 188 189
0.218750 0.332031 -0.108368 195 191 193
0.222656 0.332031 -0.106491 210 204 209
-0.234375 0.328125 -0.003391 214 152 117
-0.230469 0.328125 -0.011391 194 152 123
-0.226562 0.328125 -0.017061 195 135 103
-0.222656 0.328125 -0.021855 214 152 117
-0.218750 0.328125 -0.025281 222 160 126
-0.214844 0.328125 -0.027575 228 169 135
-0.210938 0.328125 -0.029671 232 174 140
-0.207031 0.328125 -0.031453 235 179 145
-0.203125 0.328125 -0.032940 237 184 149
-0.199219 0.328125 -0.033532 239 185 150
-0.195312 0.328125 -0.033643 240 188 154
-0.191406 0.328125 -0.033798 242 193 158
-0.187500 0.328125 -0.033898 243 194 159
-0.183594 0.328125 -0.033317 243 195 159
-0.179688 0.328125 -0.032147 242 193 157
-0.175781 0.328125 -0.031157 239 186 150
-0.171875 0.328125 -0.029948 235 177 143
-0.167969 0.328125 -0.027703 227 163 134
-0.164062 0.328125 -0.025080 211 145 122
-0.160156 0.328125 -0.019806 194 134 118
-0.156250 0.328125 -0.015158 164 112 105
-0.152344 0.328125 -0.016008 122 82 75
-0.148438 0.328125 -0.026785 147 128 125
-0.144531 0.328125 -0.041490 67 64 70
-0.140625 0.328125 -0.052243 72 71 79
-0.136719 0.328125 -0.059950 67 65 73
-0.132812 0.328125 -0.066028 65 63 74
-0.128906 0.328125 -0.070634 65 62 72
-0.125000 0.328125 -0.074798 65 63 72
-0.121094 0.328125 -0.078644 68 66 76
-0.117188 0.328125 -0.081919 72 70 80
-0.113281 0.328125 -0.084764 75 72 82
-0.109375 0.328125 -0.087579 77 74 85
-0.105469 0.328125 -0.089691 80 77 88
-0.101562 0.328125 -0.091763 82 79 90
-0.097656 0.328125 -0.093615 75 72 83
-0.093750 0.328125 -0.095499 75 72 83
-0.089844 0.328125 -0.097215 73 70 81
-0.085938 0.328125 -0.098883 71 68 79
-0.082031 0.328125 -0.100593 69 66 77
-0.078125 0.328125 -0.102159 67 64 75
-0.074219 0.328125 -0.103329 66 63 74
-0.070312 0.328125 -0.104397 65 62 73
-0.066406 0.328125 -0.105233 66 63 74
-0.062500 0.328125 -0.106141 65 62 73
-0.058594 0.328125 -0.107075 64 61 72
-0.054688 0.328125 -0.108047 63 60 71
-0.050781 0.328125 -0.108897 62 59 70
-0.046875 0.328125 -0.109801 60 57 68
-0.042969 0.328125 -0.110670 59 56 67
-0.039062 0.328125 -0.111624 59 56 67
-0.035156 0.328125 -0.112518 61 58 69
-0.031250 0.328125 -0.113435 60 57 68
-0.027344 0.328125 -0.114485 60 57 68
-0.023438 0.328125 -0.115818 59 56 67
-0.019531 0.328125 -0.117038 58 55 66
-0.015625 0.328125 -0.118296 57 54 65
-0.011719 0.328125 -0.119481 56 53 64
-0.007812 0.328125 -0.120563 56 53 64
-0.003906 0.328125 -0.121574 60 57 68
0.000000 0.328125 -0.122403 63 60 71
0.003906 0.328125 -0.123066 67 64 75
0.007812 0.328125 -0.123472 68 65 76
0.011719 0.328125 -0.123765 67 64 75
0.015625 0.328125 -0.124043 66 63 74
0.019531 0.328125 -0.124080 65 62 73
0.023438 0.328125 -0.124117 66 63 74
0.027344 0.328125 -0.123937 67 64 75
0.031250 0.328125 -0.123663 68 65 76
0.035156 0.328125 -0.123219 68 65 76
0.039062 0.328125 -0.122649 68 65 76
0.042969 0.328125 -0.121909 68 65 76
0.046875 0.328125 -0.121090 69 66 77
0.050781 0.328125 -0.120182 69 66 77
0.054688 0.328125 -0.119339 69 66 77
0.058594 0.328125 -0.118394 70 67 78
0.062500 0.328125 -0.117406 70 67 78
0.066406 0.328125 -0.116387 70 67 78
0.070312 0.328125 -0.115286 69 66 77
0.074219 0.328125 -0.114220 69 66 77
0.078125 0.328125 -0.112985 69 66 77
0.082031 0.328125 -0.112030 69 66 78
0.085938 0.328125 -0.111039 69 66 78
0.089844 0.328125 -0.109869 68 65 77
0.093750 0.328125 -0.108509 71 67 79
0.097656 0.328125 -0.106344 74 70 82
0.101562 0.328125 -0.103759 76 72 84
0.105469 0.328125 -0.100910 77 73 85
0.109375 0.328125 -0.098056 77 73 85
0.113281 0.328125 -0.095546 76 72 84
0.117188 0.328125 -0.093205 75 71 83
0.121094 0.328125 -0.091862 75 71 83
0.125000 0.328125 -0.090665 77 73 85
0.128906 0.328125 -0.102668 77 72 87
0.132812 0.328125 -0.112988 76 71 86
0.136719 0.328125 -0.118439 73 68 83
0.140625 0.328125 -0.122201 71 66 81
0.144531 0.328125 -0.125113 71 66 81
0.148438 0.328125 -0.126448 70 66 80
0.152344 0.328125 -0.127835 72 68 82
0.156250 0.328125 -0.129542 71 68 79
0.160156 0.328125 -0.130451 71 68 77
0.164062 0.328125 -0.130788 64 61 69
0.167969 0.328125 -0.131092 69 67 81
0.171875 0.328125 -0.130670 62 61 78
0.175781 0.328125 -0.130017 88 86 99
0.179688 0.328125 -0.128524 124 121 128
0.183594 0.328125 -0.126706 139 137 142
0.187500 0.328125 -0.125150 146 143 147
0.191406 0.328125 -0.123296 154 152 154
0.195312 0.328125 -0.120751 163 162 163
0.199219 0.328125 -0.118518 172 171 171
0.203125 0.328125 -0.116476 178 177 177
0.207031 0.328125 -0.114483 182 181 182
0.210938 0.328125 -0.112537 183 182 183
0.214844 0.328125 -0.110256 186 185 186
0.218750 0.328125 -0.109052 194 191 193
0.222656 0.328125 -0.106417 208 203 206
0.226562 0.328125 -0.102229 228 215 225
-0.234375 0.324219 -0.002793 214 153 118
-0.230469 0.324219 -0.010795 195 153 123
-0.226562 0.324219 -0.016900 197 137 104
-0.222656 0.324219 -0.021249 214 153 118
-0.218750 0.324219 -0.024519 223 161 127
-0.214844 0.324219 -0.027035 229 170 136
-0.210938 0.324219 -0.029038 232 175 142
-0.207031 0.324219 -0.030926 235 180 147
-0.203125 0.324219 -0.032410 238 185 151
-0.199219 0.324219 -0.033025 239 186 152
-0.195312 0.324219 -0.033108 241 190 155
-0.191406 0.324219 -0.033288 242 194 159
-0.187500 0.324219 -0.033313 243 195 160
-0.183594 0.324219 -0.032599 243 196 160
-0.179688 0.324219 -0.031378 242 193 158
-0.175781 0.324219 -0.030298 240 186 151
-0.171875 0.324219 -0.028893 236 178 144
-0.167969 0.324219 -0.026446 228 163 134
-0.164062 0.324219 -0.023860 211 144 121
-0.160156 0.324219 -0.018268 194 133 117
-0.156250 0.324219 -0.013543 161 109 103
-0.152344 0.324219 -0.014680 115 77 71
-0.148438 0.324219 -0.025525 157 142 141
-0.144531 0.324219 -0.040729 63 62 67
-0.140625 0.324219 -0.051470 76 75 83
-0.136719 0.324219 -0.059380 70 69 77
-0.132812 0.324219 -0.065692 62 60 71
-0.128906 0.324219 -0.070336 66 63 73
-0.125000 0.324219 -0.074577 66 64 73
-0.121094 0.324219 -0.078102 69 66 76
-0.117188 0.324219 -0.081346 72 69 79
-0.113281 0.324219 -0.084158 74 72 82
-0.109375 0.324219 -0.086881 78 75 85
-0.105469 0.324219 -0.089119 80 77 88
-0.101562 0.324219 -0.091020 83 80 91
-0.097656 0.324219 -0.092949 75 72 83
-0.093750 0.324219 -0.094620 74 71 82
-0.089844 0.324219 -0.096314 73 70 81
-0.085938 0.324219 -0.097890 71 68 79
-0.082031 0.324219 -0.099532 69 66 77
-0.078125 0.324219 -0.100971 67 64 75
-0.074219 0.324219 -0.102087 65 62 73
-0.070312 0.324219 -0.103075 65 62 73
-0.066406 0.324219 -0.104003 66 63 74
-0.062500 0.324219 -0.104918 65 62 73
-0.058594 0.324219 -0.105931 64 61 72
-0.054688 0.324219 -0.106934 63 60 71
-0.050781 0.324219 -0.107883 61 58 69
-0.046875 0.324219 -0.108870 60 57 68
-0.042969 0.324219 -0.109753 58 55 66
-0.039062 0.324219 -0.110623 58 55 66
-0.035156 0.324219 -0.111576 59 56 67
-0.031250 0.324219 -0.112553 59 56 67
-0.027344 0.324219 -0.113831 59 56 67
-0.023438 0.324219 -0.114763 58 55 66
-0.019531 0.324219 -0.116205 57 54 65
-0.015625 0.324219 -0.117337 57 54 65
-0.011719 0.324219 -0.118511 56 53 64
-0.007812 0.324219 -0.119652 56 53 64
-0.003906 0.324219 -0.120470 59 56 67
0.000000 0.324219 -0.121390 62 59 70
0.003906 0.324219 -0.122011 66 63 74
0.007812 0.324219 -0.122467 68 65 76
0.011719 0.324219 -0.122894 67 64 75
0.015625 0.324219 -0.123099 66 63 74
0.019531 0.324219 -0.123230 66 63 74
0.023438 0.324219 -0.123049 66 63 74
0.027344 0.324219 -0.122987 66 63 74
0.031250 0.324219 -0.122763 67 64 75
0.035156 0.324219 -0.122385 67 64 75
0.039062 0.324219 -0.121830 68 65 76
0.042969 0.324219 -0.121095 68 65 76
0.046875 0.324219 -0.120287 69 66 77
0.050781 0.324219 -0.119498 69 66 77
0.054688 0.324219 -0.118575 69 66 77
0.058594 0.324219 -0.117603 70 67 78
0.062500 0.324219 -0.116712 70 67 78
0.066406 0.324219 -0.115677 70 67 78
0.070312 0.324219 -0.114572 69 66 77
0.074219 0.324219 -0.113518 69 66 77
0.078125 0.324219 -0.112438 68 65 76
0.082031 0.324219 -0.111413 68 65 77
0.085938 0.324219 -0.110349 68 65 77
0.089844 0.324219 -0.109176 67 64 76
0.093750 0.324219 -0.107638 70 66 78
0.097656 0.324219 -0.105524 73 69 81
0.101562 0.324219 -0.102983 76 72 84
0.105469 0.324219 -0.100069 77 73 85
0.109375 0.324219 -0.097106 77 73 85
0.113281 0.324219 -0.094644 76 72 84
0.117188 0.324219 -0.092405 75 71 83
0.121094 0.324219 -0.090937 75 71 83
0.125000 0.324219 -0.089227 77 73 85
0.128906 0.324219 -0.101863 78 73 88
0.132812 0.324219 -0.113491 77 72 87
0.136719 0.324219 -0.119009 74 69 83
0.140625 0.324219 -0.122699 72 67 82
0.144531 0.324219 -0.125133 70 66 81
0.148438 0.324219 -0.126924 71 67 81
0.152344 0.324219 -0.128581 73 69 83
0.156250 0.324219 -0.130056 74 71 82
0.160156 0.324219 -0.130922 71 68 77
0.164062 0.324219 -0.131389 67 65 72
0.167969 0.324219 -0.131622 68 67 80
0.171875 0.324219 -0.131259 55 55 72
0.175781 0.324219 -0.130662 73 73 87
0.179688 0.324219 -0.128924 118 116 124
0.183594 0.324219 -0.127463 140 137 143
0.187500 0.324219 -0.125845 147 144 148
0.191406 0.324219 -0.123915 154 152 154
0.195312 0.324219 -0.121265 163 161 162
0.199219 0.324219 -0.119289 171 170 170
0.203125 0.324219 -0.117077 177 176 176
0.207031 0.324219 -0.115297 181 181 181
0.210938 0.324219 -0.113068 183 182 183
0.214844 0.324219 -0.110953 188 187 188
0.218750 0.324219 -0.109664 199 196 198
0.222656 0.324219 -0.106505 215 210 213
0.226562 0.324219 -0.103621 232 220 229
-0.234375 0.320312 -0.002469 215 154 119
-0.230469 0.320312 -0.010407 196 153 123
-0.226562 0.320312 -0.016156 198 138 105
-0.222656 0.320312 -0.020635 215 154 119
-0.218750 0.320312 -0.023931 223 162 128
-0.214844 0.320312 -0.026400 229 172 138
-0.210938 0.320312 -0.028466 233 177 144
-0.207031 0.320312 -0.030342 236 182 148
-0.203125 0.320312 -0.031888 238 186 153
-0.199219 0.320312 -0.032558 239 187 153
-0.195312 0.320312 -0.032526 241 191 157
-0.191406 0.320312 -0.032648 243 195 161
-0.187500 0.320312 -0.032734 243 196 162
-0.183594 0.320312 -0.031923 243 197 162
-0.179688 0.320312 -0.030581 242 194 159
-0.175781 0.320312 -0.029333 240 187 152
-0.171875 0.320312 -0.027785 236 178 144
-0.167969 0.320312 -0.025258 228 164 135
-0.164062 0.320312 -0.022503 212 145 122
-0.160156 0.320312 -0.017016 195 134 118
-0.156250 0.320312 -0.012098 161 108 102
-0.152344 0.320312 -0.013043 112 74 69
-0.148438 0.320312 -0.024749 146 135 137
-0.144531 0.320312 -0.040191 70 69 75
-0.140625 0.320312 -0.050979 76 75 83
-0.136719 0.320312 -0.058979 74 73 81
-0.132812 0.320312 -0.065127 63 61 72
-0.128906 0.320312 -0.069622 67 64 74
-0.125000 0.320312 -0.073855 66 64 74
-0.121094 0.320312 -0.077491 69 66 76
-0.117188 0.320312 -0.080676 72 69 79
-0.113281 0.320312 -0.083390 74 71 82
-0.109375 0.320312 -0.086193 77 74 85
-0.105469 0.320312 -0.088425 81 78 89
-0.101562 0.320312 -0.090381 83 80 91
-0.097656 0.320312 -0.092151 75 72 83
-0.093750 0.320312 -0.093811 74 71 82
-0.089844 0.320312 -0.095452 72 69 80
-0.085938 0.320312 -0.096814 70 67 78
-0.082031 0.320312 -0.098348 68 65 76
-0.078125 0.320312 -0.099752 66 63 74
-0.074219 0.320312 -0.100887 65 62 73
-0.070312 0.320312 -0.101841 64 61 72
-0.066406 0.320312 -0.102774 65 62 73
-0.062500 0.320312 -0.103660 64 61 72
-0.058594 0.320312 -0.104696 63 60 71
-0.054688 0.320312 -0.105680 62 59 70
-0.050781 0.320312 -0.106818 61 58 69
-0.046875 0.320312 -0.107830 59 56 67
-0.042969 0.320312 -0.108746 58 55 66
-0.039062 0.320312 -0.109686 58 55 66
-0.035156 0.320312 -0.110600 58 55 66
-0.031250 0.320312 -0.111606 58 55 66
-0.027344 0.320312 -0.112718 58 55 66
-0.023438 0.320312 -0.113912 57 54 65
-0.019531 0.320312 -0.115119 57 54 65
-0.015625 0.320312 -0.116337 56 53 64
-0.011719 0.320312 -0.117459 56 53 64
-0.007812 0.320312 -0.118510 56 53 64
-0.003906 0.320312 -0.119568 58 55 66
0.000000 0.320312 -0.120364 61 58 69
0.003906 0.320312 -0.120983 65 62 73
0.007812 0.320312 -0.121485 67 64 75
0.011719 0.320312 -0.121825 67 64 75
0.015625 0.320312 -0.122081 66 63 74
0.019531 0.320312 -0.122236 66 63 74
0.023438 0.320312 -0.122240 66 63 74
0.027344 0.320312 -0.122096 66 63 74
0.031250 0.320312 -0.121920 66 63 74
0.035156 0.320312 -0.121345 66 63 74
0.039062 0.320312 -0.120908 67 64 75
0.042969 0.320312 -0.120236 68 65 76
0.046875 0.320312 -0.119468 68 65 76
0.050781 0.320312 -0.118735 69 66 77
0.054688 0.320312 -0.117824 69 66 77
0.058594 0.320312 -0.116932 70 67 78
0.062500 0.320312 -0.115947 69 66 77
0.066406 0.320312 -0.115016 69 66 77
0.070312 0.320312 -0.113878 68 65 76
0.074219 0.320312 -0.112651 68 65 76
0.078125 0.320312 -0.111568 67 64 75
0.082031 0.320312 -0.110512 66 63 74
0.085938 0.320312 -0.109489 66 63 75
0.089844 0.320312 -0.108240 66 63 75
0.093750 0.320312 -0.106780 69 65 77
0.097656 0.320312 -0.104590 72 68 80
0.101562 0.320312 -0.101888 75 71 83
0.105469 0.320312 -0.098983 77 73 85
0.109375 0.320312 -0.096201 77 73 85
0.113281 0.320312 -0.093625 76 72 84
0.117188 0.320312 -0.091412 75 71 83
0.121094 0.320312 -0.089807 75 71 83
0.125000 0.320312 -0.087973 77 73 85
0.128906 0.320312 -0.101375 78 73 88
0.132812 0.320312 -0.114099 76 71 86
0.136719 0.320312 -0.119393 73 68 82
0.140625 0.320312 -0.123199 71 66 81
0.144531 0.320312 -0.125779 70 66 81
0.148438 0.320312 -0.127281 70 66 80
0.152344 0.320312 -0.128801 72 68 82
0.156250 0.320312 -0.130537 77 74 85
0.160156 0.320312 -0.131226 71 68 77
0.164062 0.320312 -0.131860 68 66 72
0.167969 0.320312 -0.132245 65 64 77
0.171875 0.320312 -0.131847 48 48 67
0.175781 0.320312 -0.131218 58 58 74
0.179688 0.320312 -0.129663 104 103 112
0.183594 0.320312 -0.128166 130 128 134
0.187500 0.320312 -0.126687 138 136 140
0.191406 0.320312 -0.124719 147 145 148
0.195312 0.320312 -0.122215 157 156 157
0.199219 0.320312 -0.120281 167 166 166
0.203125 0.320312 -0.117911 174 174 174
0.207031 0.320312 -0.116030 180 179 180
0.210938 0.320312 -0.113647 182 181 182
0.214844 0.320312 -0.111611 187 186 187
0.218750 0.320312 -0.110430 199 197 198
0.222656 0.320312 -0.106283 215 212 214
0.226562 0.320312 -0.105055 230 221 228
-0.234375 0.316406 -0.002495 216 155 120
-0.230469 0.316406 -0.010076 197 153 123
-0.226562 0.316406 -0.015938 199 139 106
-0.222656 0.316406 -0.020085 216 155 120
-0.218750 0.316406 -0.023243 224 163 130
-0.214844 0.316406 -0.025666 230 173 140
-0.210938 0.316406 -0.027811 233 178 145
-0.207031 0.316406 -0.029692 236 183 150
-0.203125 0.316406 -0.031272 239 188 154
-0.199219 0.316406 -0.031986 240 188 155
-0.195312 0.316406 -0.031944 241 192 158
-0.191406 0.316406 -0.032099 243 196 162
-0.187500 0.316406 -0.032022 243 197 163
-0.183594 0.316406 -0.031158 243 198 163
-0.179688 0.316406 -0.029723 242 195 160
-0.175781 0.316406 -0.028342 240 188 154
-0.171875 0.316406 -0.026532 236 179 145
-0.167969 0.316406 -0.023930 228 165 136
-0.164062 0.316406 -0.021286 212 145 123
-0.160156 0.316406 -0.015515 194 133 117
-0.156250 0.316406 -0.010605 155 104 98
-0.152344 0.316406 -0.011419 104 68 65
-0.148438 0.316406 -0.023811 109 102 105
-0.144531 0.316406 -0.039366 78 77 83
-0.140625 0.316406 -0.050310 72 71 79
-0.136719 0.316406 -0.058188 75 74 82
-0.132812 0.316406 -0.064755 68 66 76
-0.128906 0.316406 -0.069214 68 65 76
-0.125000 0.316406 -0.073213 67 64 74
-0.121094 0.316406 -0.076809 69 66 76
-0.117188 0.316406 -0.079991 73 70 80
-0.113281 0.316406 -0.082721 75 72 82
-0.109375 0.316406 -0.085439 77 74 85
-0.105469 0.316406 -0.087727 81 78 89
-0.101562 0.316406 -0.089582 83 80 91
-0.097656 0.316406 -0.091389 74 71 82
-0.093750 0.316406 -0.092981 74 71 82
-0.089844 0.316406 -0.094509 72 69 80
-0.085938 0.316406 -0.095939 70 67 78
-0.082031 0.316406 -0.097326 68 65 76
-0.078125 0.316406 -0.098680 66 63 74
-0.074219 0.316406 -0.099602 65 62 73
-0.070312 0.316406 -0.100657 64 61 72
-0.066406 0.316406 -0.101455 64 61 72
-0.062500 0.316406 -0.102441 63 60 71
-0.058594 0.316406 -0.103490 63 60 71
-0.054688 0.316406 -0.104653 62 59 70
-0.050781 0.316406 -0.105696 61 58 69
-0.046875 0.316406 -0.106756 60 57 68
-0.042969 0.316406 -0.107763 59 56 67
-0.039062 0.316406 -0.108757 58 55 66
-0.035156 0.316406 -0.109700 57 54 65
-0.031250 0.316406 -0.110607 57 54 65
-0.027344 0.316406 -0.111669 57 54 65
-0.023438 0.316406 -0.112922 56 53 64
-0.019531 0.316406 -0.114071 56 53 64
-0.015625 0.316406 -0.115169 56 53 64
-0.011719 0.316406 -0.116451 56 53 64
-0.007812 0.316406 -0.117461 55 52 63
-0.003906 0.316406 -0.118460 57 54 65
0.000000 0.316406 -0.119324 61 58 69
0.003906 0.316406 -0.120046 65 62 73
0.007812 0.316406 -0.120519 67 64 75
0.011719 0.316406 -0.120891 66 63 74
0.015625 0.316406 -0.121096 66 63 74
0.019531 0.316406 -0.121244 66 63 74
0.023438 0.316406 -0.121326 66 63 74
0.027344 0.316406 -0.121130 65 62 73
0.031250 0.316406 -0.121014 65 62 73
0.035156 0.316406 -0.120580 66 63 74
0.039062 0.316406 -0.120137 67 64 75
0.042969 0.316406 -0.119464 68 65 76
0.046875 0.316406 -0.118724 68 65 76
0.050781 0.316406 -0.117904 69 66 77
0.054688 0.316406 -0.116992 69 66 77
0.058594 0.316406 -0.116157 69 66 77
0.062500 0.316406 -0.115167 69 66 77
0.066406 0.316406 -0.114177 68 65 76
0.070312 0.316406 -0.113114 67 64 75
0.074219 0.316406 -0.111964 66 63 74
0.078125 0.316406 -0.110740 65 62 73
0.082031 0.316406 -0.109593 65 62 73
0.085938 0.316406 -0.108547 64 61 73
0.089844 0.316406 -0.107287 65 62 74
0.093750 0.316406 -0.105810 67 64 76
0.097656 0.316406 -0.103559 72 68 80
0.101562 0.316406 -0.100826 75 71 83
0.105469 0.316406 -0.097817 76 72 84
0.109375 0.316406 -0.095072 77 73 85
0.113281 0.316406 -0.092585 76 72 84
0.117188 0.316406 -0.090315 75 71 83
0.121094 0.316406 -0.088749 75 71 83
0.125000 0.316406 -0.086764 76 72 84
0.128906 0.316406 -0.101096 77 72 87
0.132812 0.316406 -0.114791 76 71 85
0.136719 0.316406 -0.119909 73 68 82
0.140625 0.316406 -0.123613 70 66 81
0.144531 0.316406 -0.126211 69 65 80
0.148438 0.316406 -0.127839 70 66 80
0.152344 0.316406 -0.129280 71 67 81
0.156250 0.316406 -0.130702 79 76 87
0.160156 0.316406 -0.131866 71 68 77
0.164062 0.316406 -0.132314 66 64 70
0.167969 0.316406 -0.132614 61 60 73
0.171875 0.316406 -0.132230 47 48 70
0.175781 0.316406 -0.131771 51 52 70
0.179688 0.316406 -0.130372 94 93 104
0.183594 0.316406 -0.128852 123 121 128
0.187500 0.316406 -0.127568 134 133 137
0.191406 0.316406 -0.125518 144 143 145
0.195312 0.316406 -0.123113 154 153 154
0.199219 0.316406 -0.121033 163 162 163
0.203125 0.316406 -0.118693 170 169 170
0.207031 0.316406 -0.116940 175 175 175
0.210938 0.316406 -0.114490 177 176 177
0.214844 0.316406 -0.112298 183 183 183
0.218750 0.316406 -0.110755 199 197 199
0.222656 0.316406 -0.106363 218 215 217
0.226562 0.316406 -0.105827 232 225 231
-0.234375 0.312500 -0.002226 217 157 122
-0.230469 0.312500 -0.009552 197 152 123
-0.226562 0.312500 -0.015284 200 140 107
-0.222656 0.312500 -0.019500 217 157 122
-0.218750 0.312500 -0.022574 224 165 131
-0.214844 0.312500 -0.025145 230 175 141
-0.210938 0.312500 -0.027291 234 180 147
-0.207031 0.312500 -0.029098 237 184 151
-0.203125 0.312500 -0.030648 239 189 156
-0.199219 0.312500 -0.031258 240 190 156
-0.195312 0.312500 -0.031207 241 193 160
-0.191406 0.312500 -0.031350 243 197 163
-0.187500 0.312500 -0.031328 243 198 164
-0.183594 0.312500 -0.030410 244 199 164
-0.179688 0.312500 -0.028741 242 195 161
-0.175781 0.312500 -0.027220 240 188 153
-0.171875 0.312500 -0.025364 236 178 145
-0.167969 0.312500 -0.022445 228 165 135
-0.164062 0.312500 -0.019889 211 145 122
-0.160156 0.312500 -0.014144 193 134 117
-0.156250 0.312500 -0.008815 150 102 96
-0.152344 0.312500 -0.008981 97 64 63
-0.148438 0.312500 -0.022508 78 72 76
-0.144531 0.312500 -0.038686 81 80 86
-0.140625 0.312500 -0.049375 67 66 74
-0.136719 0.312500 -0.057749 75 74 82
-0.132812 0.312500 -0.063991 72 70 80
-0.128906 0.312500 -0.068523 69 66 76
-0.125000 0.312500 -0.072499 68 65 75
-0.121094 0.312500 -0.075964 70 67 77
-0.117188 0.312500 -0.079029 73 70 80
-0.113281 0.312500 -0.081748 75 72 83
-0.109375 0.312500 -0.084575 77 74 85
-0.105469 0.312500 -0.086925 81 78 89
-0.101562 0.312500 -0.088735 84 81 92
-0.097656 0.312500 -0.090531 74 71 82
-0.093750 0.312500 -0.092078 73 70 81
-0.089844 0.312500 -0.093554 72 69 80
-0.085938 0.312500 -0.094786 70 67 78
-0.082031 0.312500 -0.096120 68 65 76
-0.078125 0.312500 -0.097429 66 63 74
-0.074219 0.312500 -0.098456 65 62 73
-0.070312 0.312500 -0.099289 64 61 72
-0.066406 0.312500 -0.100271 63 60 71
-0.062500 0.312500 -0.101214 63 60 71
-0.058594 0.312500 -0.102330 62 59 70
-0.054688 0.312500 -0.103400 61 58 69
-0.050781 0.312500 -0.104629 61 58 69
-0.046875 0.312500 -0.105740 60 57 68
-0.042969 0.312500 -0.106712 59 56 67
-0.039062 0.312500 -0.107664 59 56 67
-0.035156 0.312500 -0.108621 57 54 65
-0.031250 0.312500 -0.109681 56 53 64
-0.027344 0.312500 -0.110652 56 53 64
-0.023438 0.312500 -0.111872 56 53 64
-0.019531 0.312500 -0.112984 56 53 64
-0.015625 0.312500 -0.114073 56 53 64
-0.011719 0.312500 -0.115272 55 52 63
-0.007812 0.312500 -0.116319 55 52 63
-0.003906 0.312500 -0.117236 57 54 65
0.000000 0.312500 -0.118185 60 57 68
0.003906 0.312500 -0.118684 64 61 72
0.007812 0.312500 -0.119331 67 64 75
0.011719 0.312500 -0.119716 66 63 74
0.015625 0.312500 -0.120098 66 63 74
0.019531 0.312500 -0.120146 66 63 74
0.023438 0.312500 -0.120293 66 63 74
0.027344 0.312500 -0.120150 64 61 72
0.031250 0.312500 -0.120029 65 62 73
0.035156 0.312500 -0.119652 66 63 74
0.039062 0.312500 -0.119230 66 63 74
0.042969 0.312500 -0.118637 67 64 75
0.046875 0.312500 -0.117825 68 65 76
0.050781 0.312500 -0.117082 69 66 77
0.054688 0.312500 -0.116207 69 66 77
0.058594 0.312500 -0.115381 68 65 76
0.062500 0.312500 -0.114507 68 65 76
0.066406 0.312500 -0.113409 67 64 75
0.070312 0.312500 -0.112318 66 63 74
0.074219 0.312500 -0.111103 65 62 73
0.078125 0.312500 -0.109888 64 61 72
0.082031 0.312500 -0.108750 64 61 72
0.085938 0.312500 -0.107627 63 60 71
0.089844 0.312500 -0.106351 65 62 73
0.093750 0.312500 -0.104779 67 64 76
0.097656 0.312500 -0.102430 70 67 79
0.101562 0.312500 -0.099669 75 71 83
0.105469 0.312500 -0.096662 76 72 84
0.109375 0.312500 -0.093946 77 73 85
0.113281 0.312500 -0.091503 76 72 84
0.117188 0.312500 -0.089318 75 71 83
0.121094 0.312500 -0.087567 74 70 82
0.125000 0.312500 -0.085636 75 71 83
0.128906 0.312500 -0.100819 76 71 86
0.132812 0.312500 -0.115307 75 70 84
0.136719 0.312500 -0.120512 72 67 81
0.140625 0.312500 -0.124385 69 65 80
0.144531 0.312500 -0.126506 69 65 80
0.148438 0.312500 -0.128296 69 65 79
0.152344 0.312500 -0.129575 69 65 79
0.156250 0.312500 -0.131302 79 76 87
0.160156 0.312500 -0.132510 70 67 76
0.164062 0.312500 -0.132891 64 62 68
0.167969 0.312500 -0.133211 60 58 70
0.171875 0.312500 -0.132983 53 53 78
0.175781 0.312500 -0.132401 48 50 70
0.179688 0.312500 -0.131172 83 84 96
0.183594 0.312500 -0.129676 111 111 118
0.187500 0.312500 -0.128360 125 125 129
0.191406 0.312500 -0.126574 137 136 138
0.195312 0.312500 -0.124095 146 146 147
0.199219 0.312500 -0.122070 156 155 156
0.203125 0.312500 -0.119728 163 163 163
0.207031 0.312500 -0.117639 168 168 168
0.210938 0.312500 -0.115116 170 169 170
0.214844 0.312500 -0.112752 177 176 177
0.218750 0.312500 -0.111427 195 193 195
0.222656 0.312500 -0.106942 215 212 214
0.226562 0.312500 -0.107042 228 222 228
-0.234375 0.308594 -0.002117 218 158 124
-0.230469 0.308594 -0.008966 201 157 128
-0.226562 0.308594 -0.014734 203 142 110
-0.222656 0.308594 -0.018876 218 158 124
-0.218750 0.308594 -0.021990 225 166 133
-0.214844 0.308594 -0.024463 231 176 143
-0.210938 0.308594 -0.026437 234 181 148
-0.207031 0.308594 -0.028351 237 186 153
-0.203125 0.308594 -0.029951 239 190 157
-0.199219 0.308594 -0.030583 240 191 158
-0.195312 0.308594 -0.030431 242 194 161
-0.191406 0.308594 -0.030453 243 198 164
-0.187500 0.308594 -0.030426 243 198 165
-0.183594 0.308594 -0.029397 244 200 165
-0.179688 0.308594 -0.027649 243 196 162
-0.175781 0.308594 -0.026126 240 189 154
-0.171875 0.308594 -0.023941 236 179 146
-0.167969 0.308594 -0.021079 228 167 136
-0.164062 0.308594 -0.018486 212 147 124
-0.160156 0.308594 -0.012434 192 135 119
-0.156250 0.308594 -0.005644 145 99 95
-0.152344 0.308594 -0.005416 91 62 62
-0.148438 0.308594 -0.020549 61 57 64
-0.144531 0.308594 -0.037709 77 76 84
-0.140625 0.308594 -0.048596 62 60 71
-0.136719 0.308594 -0.056694 76 74 85
-0.132812 0.308594 -0.063136 73 71 82
-0.128906 0.308594 -0.067690 67 64 74
-0.125000 0.308594 -0.071525 68 65 75
-0.121094 0.308594 -0.074910 70 67 77
-0.117188 0.308594 -0.078080 71 68 78
-0.113281 0.308594 -0.080724 75 72 82
-0.109375 0.308594 -0.083611 78 75 86
-0.105469 0.308594 -0.085850 79 76 87
-0.101562 0.308594 -0.087787 77 74 85
-0.097656 0.308594 -0.089522 73 70 81
-0.093750 0.308594 -0.091037 74 71 82
-0.089844 0.308594 -0.092494 73 70 81
-0.085938 0.308594 -0.093683 71 68 79
-0.082031 0.308594 -0.095005 67 64 75
-0.078125 0.308594 -0.096123 65 62 73
-0.074219 0.308594 -0.097250 64 61 72
-0.070312 0.308594 -0.097949 65 62 73
-0.066406 0.308594 -0.098908 63 60 71
-0.062500 0.308594 -0.099983 63 60 71
-0.058594 0.308594 -0.101061 62 59 70
-0.054688 0.308594 -0.102249 61 58 69
-0.050781 0.308594 -0.103499 59 56 67
-0.046875 0.308594 -0.104504 58 55 66
-0.042969 0.308594 -0.105728 57 54 65
-0.039062 0.308594 -0.106612 57 54 65
-0.035156 0.308594 -0.107563 56 53 64
-0.031250 0.308594 -0.108603 57 54 65
-0.027344 0.308594 -0.109530 57 54 65
-0.023438 0.308594 -0.110724 55 52 63
-0.019531 0.308594 -0.111860 53 50 61
-0.015625 0.308594 -0.113027 52 49 60
-0.011719 0.308594 -0.113999 54 51 62
-0.007812 0.308594 -0.115130 56 53 64
-0.003906 0.308594 -0.116139 59 56 67
0.000000 0.308594 -0.116961 60 57 68
0.003906 0.308594 -0.117732 63 60 71
0.007812 0.308594 -0.118361 65 62 73
0.011719 0.308594 -0.118632 66 63 74
0.015625 0.308594 -0.119168 67 64 75
0.019531 0.308594 -0.119349 66 63 74
0.023438 0.308594 -0.119255 66 63 74
0.027344 0.308594 -0.119283 62 59 70
0.031250 0.308594 -0.119153 63 60 71
0.035156 0.308594 -0.118799 65 62 73
0.039062 0.308594 -0.118384 66 63 74
0.042969 0.308594 -0.117757 67 64 75
0.046875 0.308594 -0.117071 68 65 76
0.050781 0.308594 -0.116188 68 65 76
0.054688 0.308594 -0.115415 68 65 76
0.058594 0.308594 -0.114520 69 66 77
0.062500 0.308594 -0.113576 69 66 77
0.066406 0.308594 -0.112623 69 66 77
0.070312 0.308594 -0.111451 68 65 76
0.074219 0.308594 -0.110334 67 64 75
0.078125 0.308594 -0.109125 66 63 74
0.082031 0.308594 -0.107893 64 61 72
0.085938 0.308594 -0.106742 64 61 72
0.089844 0.308594 -0.105328 67 64 75
0.093750 0.308594 -0.103708 69 66 77
0.097656 0.308594 -0.101390 71 68 79
0.101562 0.308594 -0.098474 73 70 82
0.105469 0.308594 -0.095449 75 71 83
0.109375 0.308594 -0.092724 75 71 83
0.113281 0.308594 -0.090420 75 71 83
0.117188 0.308594 -0.088225 75 71 83
0.121094 0.308594 -0.086488 75 71 83
0.125000 0.308594 -0.084421 78 74 86
0.128906 0.308594 -0.100747 79 75 86
0.132812 0.308594 -0.116069 77 72 86
0.136719 0.308594 -0.120892 72 68 82
0.140625 0.308594 -0.124658 70 66 81
0.144531 0.308594 -0.127225 71 67 82
0.148438 0.308594 -0.128789 74 70 85
0.152344 0.308594 -0.130241 72 68 83
0.156250 0.308594 -0.131834 79 75 89
0.160156 0.308594 -0.133114 65 62 73
0.164062 0.308594 -0.133437 82 79 89
0.167969 0.308594 -0.133635 56 53 66
0.171875 0.308594 -0.133638 66 66 94
0.175781 0.308594 -0.133132 54 56 80
0.179688 0.308594 -0.131818 78 79 93
0.183594 0.308594 -0.130466 101 101 108
0.187500 0.308594 -0.129101 115 115 119
0.191406 0.308594 -0.127501 127 126 128
0.195312 0.308594 -0.124999 137 136 137
0.199219 0.308594 -0.122901 146 146 146
0.203125 0.308594 -0.120829 154 154 154
0.207031 0.308594 -0.118392 159 159 159
0.210938 0.308594 -0.115893 160 160 160
0.214844 0.308594 -0.113632 167 166 167
0.218750 0.308594 -0.111619 186 184 186
0.222656 0.308594 -0.107116 208 204 207
0.226562 0.308594 -0.107520 224 217 223
-0.234375 0.304688 -0.001518 220 161 127
-0.230469 0.304688 -0.008865 201 158 130
-0.226562 0.304688 -0.014245 204 144 112
-0.222656 0.304688 -0.018093 220 161 127
-0.218750 0.304688 -0.021323 226 169 136
-0.214844 0.304688 -0.023848 232 177 144
-0.210938 0.304688 -0.025714 235 182 149
-0.207031 0.304688 -0.027562 237 186 154
-0.203125 0.304688 -0.029042 239 191 158
-0.199219 0.304688 -0.029614 240 192 159
-0.195312 0.304688 -0.029511 242 195 162
-0.191406 0.304688 -0.029563 243 198 165
-0.187500 0.304688 -0.029403 243 198 165
-0.183594 0.304688 -0.028299 244 200 166
-0.179688 0.304688 -0.026389 242 196 162
-0.175781 0.304688 -0.024643 239 188 154
-0.171875 0.304688 -0.022285 235 179 145
-0.167969 0.304688 -0.019231 227 166 136
-0.164062 0.304688 -0.016311 210 146 124
-0.160156 0.304688 -0.010123 188 133 118
-0.156250 0.304688 -0.002129 138 97 93
-0.152344 0.304688 -0.001375 87 63 63
-0.148438 0.304688 -0.018335 66 64 71
-0.144531 0.304688 -0.036208 84 83 91
-0.140625 0.304688 -0.047626 65 63 74
-0.136719 0.304688 -0.055500 74 72 83
-0.132812 0.304688 -0.062009 71 69 80
-0.128906 0.304688 -0.066459 67 65 75
-0.125000 0.304688 -0.070388 70 67 78
-0.121094 0.304688 -0.073727 72 70 80
-0.117188 0.304688 -0.076781 72 69 79
-0.113281 0.304688 -0.079496 75 72 82
-0.109375 0.304688 -0.082399 79 77 87
-0.105469 0.304688 -0.084772 79 76 87
-0.101562 0.304688 -0.086551 76 73 84
-0.097656 0.304688 -0.088353 73 70 81
-0.093750 0.304688 -0.089941 74 71 82
-0.089844 0.304688 -0.091108 73 70 81
-0.085938 0.304688 -0.092452 71 68 79
-0.082031 0.304688 -0.093538 67 64 75
-0.078125 0.304688 -0.094837 65 62 73
-0.074219 0.304688 -0.095720 64 61 72
-0.070312 0.304688 -0.096795 65 62 73
-0.066406 0.304688 -0.097588 63 60 71
-0.062500 0.304688 -0.098576 63 60 71
-0.058594 0.304688 -0.099769 62 59 70
-0.054688 0.304688 -0.100979 60 57 68
-0.050781 0.304688 -0.102328 59 56 67
-0.046875 0.304688 -0.103586 58 55 66
-0.042969 0.304688 -0.104606 57 54 65
-0.039062 0.304688 -0.105569 57 54 65
-0.035156 0.304688 -0.106532 56 53 64
-0.031250 0.304688 -0.107536 57 54 65
-0.027344 0.304688 -0.108617 57 54 65
-0.023438 0.304688 -0.109555 55 52 63
-0.019531 0.304688 -0.110765 53 50 61
-0.015625 0.304688 -0.111820 53 50 61
-0.011719 0.304688 -0.113013 54 51 62
-0.007812 0.304688 -0.114053 56 53 64
-0.003906 0.304688 -0.114894 59 56 67
0.000000 0.304688 -0.115865 60 57 68
0.003906 0.304688 -0.116598 63 60 71
0.007812 0.304688 -0.117156 65 62 73
0.011719 0.304688 -0.117710 66 63 74
0.015625 0.304688 -0.117996 66 63 74
0.019531 0.304688 -0.118220 66 63 74
0.023438 0.304688 -0.118359 65 62 73
0.027344 0.304688 -0.118333 62 59 70
0.031250 0.304688 -0.118227 63 60 71
0.035156 0.304688 -0.117907 65 62 73
0.039062 0.304688 -0.117480 66 63 74
0.042969 0.304688 -0.116955 67 64 75
0.046875 0.304688 -0.116291 68 65 76
0.050781 0.304688 -0.115488 68 65 76
0.054688 0.304688 -0.114683 68 65 76
0.058594 0.304688 -0.113873 68 65 76
0.062500 0.304688 -0.112978 68 65 76
0.066406 0.304688 -0.111919 68 65 76
0.070312 0.304688 -0.110829 68 65 76
0.074219 0.304688 -0.109535 67 64 75
0.078125 0.304688 -0.108339 66 63 74
0.082031 0.304688 -0.107166 65 62 73
0.085938 0.304688 -0.105808 64 61 72
0.089844 0.304688 -0.104406 67 64 75
0.093750 0.304688 -0.102746 69 66 77
0.097656 0.304688 -0.100306 71 68 79
0.101562 0.304688 -0.097366 73 70 81
0.105469 0.304688 -0.094361 74 71 82
0.109375 0.304688 -0.091795 74 71 83
0.113281 0.304688 -0.089424 75 71 83
0.117188 0.304688 -0.087160 74 70 82
0.121094 0.304688 -0.085614 77 73 84
0.125000 0.304688 -0.083413 78 74 85
0.128906 0.304688 -0.100533 79 75 86
0.132812 0.304688 -0.116567 77 73 87
0.136719 0.304688 -0.121467 74 70 84
0.140625 0.304688 -0.125323 72 68 83
0.144531 0.304688 -0.127700 73 69 84
0.148438 0.304688 -0.129403 75 71 86
0.152344 0.304688 -0.130744 71 67 82
0.156250 0.304688 -0.132502 79 75 89
0.160156 0.304688 -0.133853 68 65 76
0.164062 0.304688 -0.134162 83 80 89
0.167969 0.304688 -0.134359 62 59 70
0.171875 0.304688 -0.134129 86 86 114
0.175781 0.304688 -0.133535 67 70 96
0.179688 0.304688 -0.132496 83 84 100
0.183594 0.304688 -0.131197 103 103 111
0.187500 0.304688 -0.130074 120 120 123
0.191406 0.304688 -0.128444 132 131 133
0.195312 0.304688 -0.125807 139 139 140
0.199219 0.304688 -0.123818 147 147 147
0.203125 0.304688 -0.121503 154 154 154
0.207031 0.304688 -0.119317 157 157 157
0.210938 0.304688 -0.116566 157 157 157
0.214844 0.304688 -0.113846 163 163 163
0.218750 0.304688 -0.112018 186 183 185
0.222656 0.304688 -0.107638 212 208 211
0.226562 0.304688 -0.107146 232 224 231
-0.234375 0.300781 -0.000718 222 164 130
-0.230469 0.300781 -0.008626 202 160 134
-0.226562 0.300781 -0.013741 206 147 116
-0.222656 0.300781 -0.017423 222 164 130
-0.218750 0.300781 -0.020528 228 172 139
-0.214844 0.300781 -0.022851 232 179 146
-0.210938 0.300781 -0.024842 235 183 151
-0.207031 0.300781 -0.026738 237 187 155
-0.203125 0.300781 -0.028128 240 192 159
-0.199219 0.300781 -0.028634 240 192 160
-0.195312 0.300781 -0.028518 242 195 163
-0.191406 0.300781 -0.028397 243 198 166
-0.187500 0.300781 -0.028288 243 198 165
-0.183594 0.300781 -0.027081 243 200 166
-0.179688 0.300781 -0.024937 242 195 161
-0.175781 0.300781 -0.023106 239 186 152
-0.171875 0.300781 -0.020586 234 176 143
-0.167969 0.300781 -0.017117 225 164 134
-0.164062 0.300781 -0.013745 208 146 124
-0.160156 0.300781 -0.007025 188 134 119
-0.156250 0.300781 0.001514 139 97 95
-0.152344 0.300781 0.001936 86 66 68
-0.148438 0.300781 -0.016851 71 69 77
-0.144531 0.300781 -0.034566 86 85 93
-0.140625 0.300781 -0.046183 68 66 77
-0.136719 0.300781 -0.054294 75 73 84
-0.132812 0.300781 -0.060712 70 68 79
-0.128906 0.300781 -0.065206 69 66 77
-0.125000 0.300781 -0.068934 71 68 78
-0.121094 0.300781 -0.072242 73 70 81
-0.117188 0.300781 -0.075354 74 71 81
-0.113281 0.300781 -0.077994 75 72 83
-0.109375 0.300781 -0.081034 80 77 87
-0.105469 0.300781 -0.083268 79 76 87
-0.101562 0.300781 -0.085172 76 73 84
-0.097656 0.300781 -0.086832 73 70 81
-0.093750 0.300781 -0.088281 73 70 81
-0.089844 0.300781 -0.089733 73 70 81
-0.085938 0.300781 -0.090905 70 67 78
-0.082031 0.300781 -0.092138 67 64 75
-0.078125 0.300781 -0.093299 64 61 72
-0.074219 0.300781 -0.094248 64 61 72
-0.070312 0.300781 -0.095217 65 62 73
-0.066406 0.300781 -0.096084 63 60 71
-0.062500 0.300781 -0.097264 62 59 70
-0.058594 0.300781 -0.098469 61 58 69
-0.054688 0.300781 -0.099793 60 57 68
-0.050781 0.300781 -0.101102 59 56 67
-0.046875 0.300781 -0.102307 58 55 66
-0.042969 0.300781 -0.103518 57 54 65
-0.039062 0.300781 -0.104519 56 53 64
-0.035156 0.300781 -0.105504 55 52 63
-0.031250 0.300781 -0.106299 56 53 64
-0.027344 0.300781 -0.107430 57 54 65
-0.023438 0.300781 -0.108563 55 52 63
-0.019531 0.300781 -0.109600 53 50 61
-0.015625 0.300781 -0.110621 53 50 61
-0.011719 0.300781 -0.111700 54 51 62
-0.007812 0.300781 -0.112777 56 53 64
-0.003906 0.300781 -0.113847 59 56 67
0.000000 0.300781 -0.114807 60 57 68
0.003906 0.300781 -0.115505 62 59 70
0.007812 0.300781 -0.116057 64 61 72
0.011719 0.300781 -0.116613 65 62 73
0.015625 0.300781 -0.117082 66 63 74
0.019531 0.300781 -0.117425 65 62 73
0.023438 0.300781 -0.117456 64 61 72
0.027344 0.300781 -0.117488 62 59 70
0.031250 0.300781 -0.117298 63 60 71
0.035156 0.300781 -0.117140 65 62 73
0.039062 0.300781 -0.116668 66 63 74
0.042969 0.300781 -0.116103 67 64 75
0.046875 0.300781 -0.115387 68 65 76
0.050781 0.300781 -0.114764 68 65 76
0.054688 0.300781 -0.113878 68 65 76
0.058594 0.300781 -0.113049 67 64 75
0.062500 0.300781 -0.112208 67 64 75
0.066406 0.300781 -0.111192 68 65 76
0.070312 0.300781 -0.110079 68 65 76
0.074219 0.300781 -0.108907 68 65 76
0.078125 0.300781 -0.107619 67 64 75
0.082031 0.300781 -0.106408 66 63 74
0.085938 0.300781 -0.105103 66 63 74
0.089844 0.300781 -0.103635 67 64 75
0.093750 0.300781 -0.101834 68 65 76
0.097656 0.300781 -0.099384 71 68 79
0.101562 0.300781 -0.096350 73 70 81
0.105469 0.300781 -0.093438 74 71 82
0.109375 0.300781 -0.090784 74 71 82
0.113281 0.300781 -0.088524 74 71 82
0.117188 0.300781 -0.086319 73 70 81
0.121094 0.300781 -0.084677 77 74 85
0.125000 0.300781 -0.082679 78 75 86
0.128906 0.300781 -0.100099 78 75 86
0.132812 0.300781 -0.117092 77 73 87
0.136719 0.300781 -0.121925 75 71 85
0.140625 0.300781 -0.125800 73 69 84
0.144531 0.300781 -0.128290 74 70 85
0.148438 0.300781 -0.130094 75 71 86
0.152344 0.300781 -0.131190 71 67 82
0.156250 0.300781 -0.133163 80 76 90
0.160156 0.300781 -0.134475 72 69 80
0.164062 0.300781 -0.134847 83 80 89
0.167969 0.300781 -0.134731 66 63 73
0.171875 0.300781 -0.134653 99 100 125
0.175781 0.300781 -0.134407 78 81 109
0.179688 0.300781 -0.133047 86 88 104
0.183594 0.300781 -0.131851 107 108 114
0.187500 0.300781 -0.130672 129 128 131
0.191406 0.300781 -0.128958 141 141 142
0.195312 0.300781 -0.126636 147 146 147
0.199219 0.300781 -0.124465 153 153 153
0.203125 0.300781 -0.122114 157 157 157
0.207031 0.300781 -0.119765 157 157 157
0.210938 0.300781 -0.117085 158 157 158
0.214844 0.300781 -0.114282 168 167 168
0.218750 0.300781 -0.111958 193 189 192
0.222656 0.300781 -0.107790 219 214 218
0.226562 0.300781 -0.107131 236 228 235
-0.234375 0.296875 -0.000030 223 166 132
-0.230469 0.296875 -0.007757 208 171 142
-0.226562 0.296875 -0.012895 208 151 119
-0.222656 0.296875 -0.016668 223 166 132
-0.218750 0.296875 -0.019635 229 174 141
-0.214844 0.296875 -0.022081 232 179 147
-0.210938 0.296875 -0.023873 235 184 151
