ply
    format ascii 1.0
    element vertex 67672
    property float x
    property float y
    property float z
    property uchar red
    property uchar green
    property uchar blue
    end_header
0.191406 0.054688 -0.065484 114 100 85
0.195312 0.054688 -0.066951 142 116 96
0.199219 0.054688 -0.059726 159 117 96
0.203125 0.054688 -0.056730 206 157 130
0.207031 0.054688 -0.058586 225 176 144
0.210938 0.054688 -0.062376 230 179 143
0.214844 0.054688 -0.066860 231 176 137
0.218750 0.054688 -0.070706 232 176 136
0.222656 0.054688 -0.075996 212 151 113
0.226562 0.054688 -0.082265 169 120 92
0.230469 0.054688 -0.088244 216 200 180
0.234375 0.054688 -0.096803 237 233 227
-0.203125 0.050781 0.091953 153 126 108
-0.199219 0.050781 0.096865 164 126 99
-0.195312 0.050781 0.104574 165 117 89
-0.191406 0.050781 0.108592 179 123 92
-0.187500 0.050781 0.113387 188 126 96
-0.183594 0.050781 0.116861 198 128 97
-0.179688 0.050781 0.119704 208 135 102
-0.175781 0.050781 0.121845 216 143 108
-0.171875 0.050781 0.123777 222 150 115
-0.167969 0.050781 0.122681 224 153 119
-0.164062 0.050781 0.117088 223 154 121
-0.160156 0.050781 0.108819 221 161 129
-0.156250 0.050781 0.028987 196 140 115
-0.152344 0.050781 0.032940 102 81 60
-0.148438 0.050781 0.041570 49 44 35
-0.144531 0.050781 0.050090 68 30 45
-0.140625 0.050781 0.058113 72 31 49
-0.136719 0.050781 0.064606 74 38 53
-0.132812 0.050781 0.070207 65 36 47
-0.128906 0.050781 0.077000 64 49 54
-0.125000 0.050781 0.084351 53 45 44
-0.121094 0.050781 0.090174 45 53 37
-0.117188 0.050781 0.094942 40 57 32
-0.113281 0.050781 0.099739 53 71 41
-0.109375 0.050781 0.104093 60 56 42
-0.105469 0.050781 0.108601 60 33 40
-0.101562 0.050781 0.113126 68 26 42
-0.097656 0.050781 0.117379 79 27 46
-0.093750 0.050781 0.121307 83 25 46
-0.089844 0.050781 0.124942 85 26 47
-0.085938 0.050781 0.127878 87 28 49
-0.082031 0.050781 0.130543 83 31 50
-0.078125 0.050781 0.132992 80 33 50
-0.074219 0.050781 0.134726 76 34 50
-0.070312 0.050781 0.135718 73 35 49
-0.066406 0.050781 0.136424 73 22 43
-0.062500 0.050781 0.136859 81 29 51
-0.058594 0.050781 0.137190 86 34 56
-0.054688 0.050781 0.137719 81 32 53
-0.050781 0.050781 0.138032 75 26 47
-0.046875 0.050781 0.138486 72 25 45
-0.042969 0.050781 0.139144 70 25 45
-0.039062 0.050781 0.139842 69 24 44
-0.035156 0.050781 0.140712 78 35 54
-0.031250 0.050781 0.141408 74 33 51
-0.027344 0.050781 0.142266 69 30 48
-0.023438 0.050781 0.143100 67 29 47
-0.019531 0.050781 0.143852 66 30 46
-0.015625 0.050781 0.144526 66 30 46
-0.011719 0.050781 0.144471 65 28 45
-0.007812 0.050781 0.143865 62 29 44
-0.003906 0.050781 0.141834 66 36 46
0.000000 0.050781 0.138706 64 35 45
0.003906 0.050781 0.134495 59 32 43
0.007812 0.050781 0.129683 56 31 41
0.011719 0.050781 0.123938 51 29 39
0.015625 0.050781 0.116853 45 25 35
0.019531 0.050781 0.109297 38 21 30
0.023438 0.050781 0.103395 33 18 26
0.027344 0.050781 0.099473 34 20 29
0.031250 0.050781 0.097117 33 19 28
0.035156 0.050781 0.094977 31 18 27
0.039062 0.050781 0.093254 30 17 26
0.042969 0.050781 0.092513 31 17 26
0.046875 0.050781 0.093370 33 18 28
0.050781 0.050781 0.096031 37 20 31
0.054688 0.050781 0.099148 40 20 31
0.058594 0.050781 0.101192 40 19 31
0.062500 0.050781 0.101434 44 21 32
0.066406 0.050781 0.100337 50 23 36
0.070312 0.050781 0.098487 53 24 38
0.074219 0.050781 0.096107 53 24 38
0.078125 0.050781 0.093798 52 22 36
0.082031 0.050781 0.091482 49 21 34
0.085938 0.050781 0.089656 48 20 33
0.089844 0.050781 0.088006 55 27 40
0.093750 0.050781 0.086409 52 24 37
0.097656 0.050781 0.084500 48 21 33
0.101562 0.050781 0.082390 47 21 33
0.105469 0.050781 0.079787 47 22 34
0.109375 0.050781 0.077236 49 25 36
0.113281 0.050781 0.074566 48 25 37
0.117188 0.050781 0.071743 46 25 36
0.121094 0.050781 0.068857 43 21 35
0.125000 0.050781 0.065623 47 24 40
0.128906 0.050781 0.061736 50 27 42
0.132812 0.050781 0.055939 49 26 40
0.136719 0.050781 0.048675 45 23 38
0.140625 0.050781 0.040537 46 24 41
0.144531 0.050781 0.034793 42 24 39
0.148438 0.050781 0.029127 33 20 33
0.152344 0.050781 0.023624 32 20 33
0.156250 0.050781 0.017532 31 21 33
0.160156 0.050781 0.012476 30 21 34
0.164062 0.050781 0.007006 28 21 33
0.167969 0.050781 0.000631 27 22 34
0.171875 0.050781 -0.005846 32 26 39
0.175781 0.050781 -0.013786 29 27 38
0.179688 0.050781 -0.023943 31 29 39
0.183594 0.050781 -0.037579 25 22 29
0.187500 0.050781 -0.051363 49 40 41
0.191406 0.050781 -0.065769 161 135 115
0.195312 0.050781 -0.062675 167 133 113
0.199219 0.050781 -0.055169 171 126 105
0.203125 0.050781 -0.053402 213 164 138
0.207031 0.050781 -0.054535 228 177 147
0.210938 0.050781 -0.057738 233 184 149
0.214844 0.050781 -0.061880 234 182 143
0.218750 0.050781 -0.066264 235 183 140
0.222656 0.050781 -0.073069 221 159 119
0.226562 0.050781 -0.079035 188 127 103
0.230469 0.050781 -0.084683 213 188 173
0.234375 0.050781 -0.093415 227 216 212
-0.203125 0.046875 0.093543 154 129 117
-0.199219 0.046875 0.098594 158 119 97
-0.195312 0.046875 0.102830 160 109 85
-0.191406 0.046875 0.108164 175 117 89
-0.187500 0.046875 0.113225 185 121 93
-0.183594 0.046875 0.116805 195 121 93
-0.179688 0.046875 0.119479 205 126 96
-0.175781 0.046875 0.122066 215 137 104
-0.171875 0.046875 0.124429 224 151 117
-0.167969 0.046875 0.124543 225 151 121
-0.164062 0.046875 0.118633 222 146 113
-0.160156 0.046875 0.116395 224 161 128
-0.156250 0.046875 0.030725 206 146 120
-0.152344 0.046875 0.030948 115 88 66
-0.148438 0.046875 0.039719 41 56 31
-0.144531 0.046875 0.048383 49 33 35
-0.140625 0.046875 0.056193 62 28 42
-0.136719 0.046875 0.062859 61 32 44
-0.132812 0.046875 0.068440 46 28 35
-0.128906 0.046875 0.074366 34 30 33
-0.125000 0.046875 0.080415 31 31 30
-0.121094 0.046875 0.085811 30 40 29
-0.117188 0.046875 0.090801 27 43 26
-0.113281 0.046875 0.095965 34 53 29
-0.109375 0.046875 0.100770 42 53 30
-0.105469 0.046875 0.105483 52 40 34
-0.101562 0.046875 0.109717 67 36 42
-0.097656 0.046875 0.113719 73 30 41
-0.093750 0.046875 0.117534 73 28 39
-0.089844 0.046875 0.120671 72 29 38
-0.085938 0.046875 0.123486 70 31 39
-0.082031 0.046875 0.125807 68 32 40
-0.078125 0.046875 0.127965 66 33 41
-0.074219 0.046875 0.129745 64 33 41
-0.070312 0.046875 0.130731 63 33 42
-0.066406 0.046875 0.131533 64 29 42
-0.062500 0.046875 0.132230 67 32 45
-0.058594 0.046875 0.132596 66 28 43
-0.054688 0.046875 0.132906 57 20 35
-0.050781 0.046875 0.133204 55 19 33
-0.046875 0.046875 0.133365 63 26 41
-0.042969 0.046875 0.133424 70 35 49
-0.039062 0.046875 0.133016 71 37 51
-0.035156 0.046875 0.132591 60 27 41
-0.031250 0.046875 0.131795 60 30 43
-0.027344 0.046875 0.130891 61 33 45
-0.023438 0.046875 0.129884 60 33 44
-0.019531 0.046875 0.129303 58 31 43
-0.015625 0.046875 0.128037 56 33 43
-0.011719 0.046875 0.126117 57 35 44
-0.007812 0.046875 0.122963 53 36 44
-0.003906 0.046875 0.118799 45 37 39
0.000000 0.046875 0.114877 51 47 49
0.003906 0.046875 0.111160 51 51 57
0.007812 0.046875 0.108264 48 50 58
0.011719 0.046875 0.105698 54 57 66
0.015625 0.046875 0.103198 57 59 70
0.019531 0.046875 0.101820 44 46 57
0.023438 0.046875 0.099900 32 33 42
0.027344 0.046875 0.097907 31 31 39
0.031250 0.046875 0.095685 33 31 40
0.035156 0.046875 0.093238 29 27 35
0.039062 0.046875 0.090926 24 22 30
0.042969 0.046875 0.088491 25 23 31
0.046875 0.046875 0.086886 34 31 41
0.050781 0.046875 0.084879 42 39 50
0.054688 0.046875 0.083659 41 37 47
0.058594 0.046875 0.084482 32 27 37
0.062500 0.046875 0.085620 30 25 34
0.066406 0.046875 0.086061 40 31 40
0.070312 0.046875 0.085355 46 36 46
0.074219 0.046875 0.083877 50 39 49
0.078125 0.046875 0.082275 50 38 49
0.082031 0.046875 0.081302 47 35 46
0.085938 0.046875 0.080650 45 34 44
0.089844 0.046875 0.080237 41 31 41
0.093750 0.046875 0.079335 40 30 40
0.097656 0.046875 0.077608 38 28 38
0.101562 0.046875 0.074956 34 26 34
0.105469 0.046875 0.071491 31 24 32
0.109375 0.046875 0.067727 28 23 31
0.113281 0.046875 0.063866 25 21 29
0.117188 0.046875 0.059988 24 21 29
0.121094 0.046875 0.055993 31 26 38
0.125000 0.046875 0.052081 36 30 42
0.128906 0.046875 0.048584 33 26 39
0.132812 0.046875 0.044711 31 24 37
0.136719 0.046875 0.041503 30 23 36
0.140625 0.046875 0.038172 30 25 37
0.144531 0.046875 0.033762 29 24 36
0.148438 0.046875 0.028653 30 25 37
0.152344 0.046875 0.023252 34 29 43
0.156250 0.046875 0.018385 37 32 46
0.160156 0.046875 0.013092 39 33 48
0.164062 0.046875 0.007900 38 33 48
0.167969 0.046875 0.001798 40 35 49
0.171875 0.046875 -0.004621 41 35 49
0.175781 0.046875 -0.011655 36 33 45
0.179688 0.046875 -0.022382 38 34 45
0.183594 0.046875 -0.036171 30 24 33
0.187500 0.046875 -0.052027 70 51 53
0.191406 0.046875 -0.065094 192 158 138
0.195312 0.046875 -0.059248 186 146 126
0.199219 0.046875 -0.051577 182 131 113
0.203125 0.046875 -0.049957 216 162 139
0.207031 0.046875 -0.051365 229 173 146
0.210938 0.046875 -0.054150 234 184 150
0.214844 0.046875 -0.059030 233 180 142
0.218750 0.046875 -0.062702 234 180 138
0.222656 0.046875 -0.069019 223 161 121
0.226562 0.046875 -0.076500 193 126 102
0.230469 0.046875 -0.080930 206 173 156
0.234375 0.046875 -0.090005 226 214 206
-0.203125 0.042969 0.097764 182 169 155
-0.199219 0.042969 0.098220 167 136 110
-0.195312 0.042969 0.102604 149 104 80
-0.191406 0.042969 0.108371 159 106 81
-0.187500 0.042969 0.113265 173 111 86
-0.183594 0.042969 0.116593 185 113 87
-0.179688 0.042969 0.119685 198 119 89
-0.175781 0.042969 0.122335 211 133 97
-0.171875 0.042969 0.125227 222 149 111
-0.167969 0.042969 0.125371 223 147 114
-0.164062 0.042969 0.121043 213 135 102
-0.160156 0.042969 0.122478 218 153 119
-0.156250 0.042969 0.041352 203 142 114
-0.152344 0.042969 0.027339 117 84 64
-0.148438 0.042969 0.039002 45 59 35
-0.144531 0.042969 0.047101 24 40 23
-0.140625 0.042969 0.054915 28 24 23
-0.136719 0.042969 0.061391 27 23 24
-0.132812 0.042969 0.067026 26 24 27
-0.128906 0.042969 0.073083 25 23 28
-0.125000 0.042969 0.079138 27 27 30
-0.121094 0.042969 0.084633 28 35 32
-0.117188 0.042969 0.089475 20 31 25
-0.113281 0.042969 0.094609 19 32 21
-0.109375 0.042969 0.099434 24 38 21
-0.105469 0.042969 0.103845 31 43 23
-0.101562 0.042969 0.108160 40 46 27
-0.097656 0.042969 0.111915 44 44 27
-0.093750 0.042969 0.115614 40 38 25
-0.089844 0.042969 0.118892 35 34 25
-0.085938 0.042969 0.121587 34 32 26
-0.082031 0.042969 0.123917 33 29 27
-0.078125 0.042969 0.126040 31 27 27
-0.074219 0.042969 0.127604 32 27 29
-0.070312 0.042969 0.128783 30 26 28
-0.066406 0.042969 0.129435 31 27 29
-0.062500 0.042969 0.129856 37 33 33
-0.058594 0.042969 0.129860 38 35 34
-0.054688 0.042969 0.129628 38 35 33
-0.050781 0.042969 0.129254 39 36 34
-0.046875 0.042969 0.128356 40 37 34
-0.042969 0.042969 0.127219 38 36 33
-0.039062 0.042969 0.125679 36 35 31
-0.035156 0.042969 0.123805 35 34 30
-0.031250 0.042969 0.121815 35 34 30
-0.027344 0.042969 0.119775 38 37 32
-0.023438 0.042969 0.117710 39 37 32
-0.019531 0.042969 0.115513 38 36 32
-0.015625 0.042969 0.113412 38 36 32
-0.011719 0.042969 0.111471 40 38 35
-0.007812 0.042969 0.109731 41 41 39
-0.003906 0.042969 0.108306 44 45 44
0.000000 0.042969 0.107467 51 54 55
0.003906 0.042969 0.106799 51 56 61
0.007812 0.042969 0.105914 48 54 61
0.011719 0.042969 0.104871 57 62 69
0.015625 0.042969 0.103282 59 64 72
0.019531 0.042969 0.101487 44 50 58
0.023438 0.042969 0.099026 31 36 43
0.027344 0.042969 0.096648 32 36 42
0.031250 0.042969 0.094159 35 39 45
0.035156 0.042969 0.091866 28 30 37
0.039062 0.042969 0.088979 21 22 27
0.042969 0.042969 0.086291 21 22 27
0.046875 0.042969 0.084121 30 31 36
0.050781 0.042969 0.082494 37 40 46
0.054688 0.042969 0.080579 40 43 49
0.058594 0.042969 0.078780 38 40 46
0.062500 0.042969 0.076611 35 35 41
0.066406 0.042969 0.074414 40 38 43
0.070312 0.042969 0.072194 44 41 45
0.074219 0.042969 0.070175 45 42 46
0.078125 0.042969 0.068313 47 44 49
0.082031 0.042969 0.066677 46 44 49
0.085938 0.042969 0.065222 46 44 49
0.089844 0.042969 0.063891 44 44 48
0.093750 0.042969 0.062366 42 43 47
0.097656 0.042969 0.060757 41 40 44
0.101562 0.042969 0.058469 35 35 39
0.105469 0.042969 0.056108 28 29 33
0.109375 0.042969 0.053903 24 25 30
0.113281 0.042969 0.051834 20 22 27
0.117188 0.042969 0.050032 19 20 26
0.121094 0.042969 0.048617 20 20 28
0.125000 0.042969 0.047124 21 20 28
0.128906 0.042969 0.045255 20 19 27
0.132812 0.042969 0.042981 21 19 28
0.136719 0.042969 0.040111 22 21 30
0.140625 0.042969 0.037141 23 22 30
0.144531 0.042969 0.033117 26 24 33
0.148438 0.042969 0.028526 33 31 40
0.152344 0.042969 0.023993 39 36 46
0.156250 0.042969 0.018867 42 37 48
0.160156 0.042969 0.014093 43 39 49
0.164062 0.042969 0.008716 42 38 49
0.167969 0.042969 0.003015 44 40 51
0.171875 0.042969 -0.003115 42 38 48
0.175781 0.042969 -0.011182 38 34 45
0.179688 0.042969 -0.021090 41 35 45
0.183594 0.042969 -0.034935 41 31 39
0.187500 0.042969 -0.051634 100 73 72
0.191406 0.042969 -0.061102 200 163 145
0.195312 0.042969 -0.053666 194 151 133
0.199219 0.042969 -0.047742 198 148 128
0.203125 0.042969 -0.046631 222 169 147
0.207031 0.042969 -0.048291 232 177 149
0.210938 0.042969 -0.051253 235 185 150
0.214844 0.042969 -0.056167 233 179 140
0.218750 0.042969 -0.059681 233 179 136
0.222656 0.042969 -0.065833 226 165 124
0.226562 0.042969 -0.073768 200 130 103
0.230469 0.042969 -0.079060 204 162 142
0.234375 0.042969 -0.084956 224 206 196
-0.203125 0.039062 0.109019 184 172 163
-0.199219 0.039062 0.097470 168 139 113
-0.195312 0.039062 0.101471 137 95 76
-0.191406 0.039062 0.107065 141 91 73
-0.187500 0.039062 0.112435 161 99 81
-0.183594 0.039062 0.116182 182 109 86
-0.179688 0.039062 0.119799 198 117 89
-0.175781 0.039062 0.122857 205 121 89
-0.171875 0.039062 0.125901 205 119 87
-0.167969 0.039062 0.126582 213 129 97
-0.164062 0.039062 0.124519 217 144 108
-0.160156 0.039062 0.123734 221 166 130
-0.156250 0.039062 0.075017 198 142 111
-0.152344 0.039062 0.022421 94 64 50
-0.148438 0.039062 0.038262 37 40 30
-0.144531 0.039062 0.045412 22 38 26
-0.140625 0.039062 0.053980 18 30 24
-0.136719 0.039062 0.060378 23 32 30
-0.132812 0.039062 0.066263 32 37 41
-0.128906 0.039062 0.072802 35 34 43
-0.125000 0.039062 0.078556 39 38 46
-0.121094 0.039062 0.084423 42 46 52
-0.117188 0.039062 0.089336 32 40 42
-0.113281 0.039062 0.094393 27 38 35
-0.109375 0.039062 0.099059 30 41 33
-0.105469 0.039062 0.103506 33 44 33
-0.101562 0.039062 0.107652 39 48 35
-0.097656 0.039062 0.111490 42 47 36
-0.093750 0.039062 0.115242 38 42 35
-0.089844 0.039062 0.118372 33 36 33
-0.085938 0.039062 0.120957 32 33 34
-0.082031 0.039062 0.123342 31 31 35
-0.078125 0.039062 0.125379 31 29 35
-0.074219 0.039062 0.127089 34 31 39
-0.070312 0.039062 0.128090 32 30 38
-0.066406 0.039062 0.128769 30 29 35
-0.062500 0.039062 0.129174 34 32 37
-0.058594 0.039062 0.129282 35 34 38
-0.054688 0.039062 0.129175 37 36 39
-0.050781 0.039062 0.128668 39 38 40
-0.046875 0.039062 0.128052 38 38 40
-0.042969 0.039062 0.127093 36 37 39
-0.039062 0.039062 0.125718 37 38 41
-0.035156 0.039062 0.124130 37 39 42
-0.031250 0.039062 0.122375 37 39 42
-0.027344 0.039062 0.120723 38 41 43
-0.023438 0.039062 0.119086 37 39 41
-0.019531 0.039062 0.117222 33 35 37
-0.015625 0.039062 0.115493 29 30 32
-0.011719 0.039062 0.113572 28 27 29
-0.007812 0.039062 0.111479 27 27 29
-0.003906 0.039062 0.109570 24 24 27
0.000000 0.039062 0.107820 25 25 29
0.003906 0.039062 0.106247 24 24 30
0.007812 0.039062 0.104607 23 24 29
0.011719 0.039062 0.102862 25 26 31
0.015625 0.039062 0.101129 26 27 33
0.019531 0.039062 0.099186 25 26 32
0.023438 0.039062 0.097346 26 28 35
0.027344 0.039062 0.095130 35 38 43
0.031250 0.039062 0.092829 40 44 48
0.035156 0.039062 0.090381 32 35 40
0.039062 0.039062 0.087040 24 26 31
0.042969 0.039062 0.083952 22 23 27
0.046875 0.039062 0.080954 26 25 30
0.050781 0.039062 0.078551 30 30 34
0.054688 0.039062 0.076602 36 37 41
0.058594 0.039062 0.074561 42 43 48
0.062500 0.039062 0.072456 40 41 44
0.066406 0.039062 0.070460 38 38 41
0.070312 0.039062 0.068481 34 33 37
0.074219 0.039062 0.066515 30 29 34
0.078125 0.039062 0.064610 28 27 32
0.082031 0.039062 0.062940 27 26 31
0.085938 0.039062 0.061350 25 25 29
0.089844 0.039062 0.059824 23 24 28
0.093750 0.039062 0.058501 21 22 26
0.097656 0.039062 0.056588 19 20 24
0.101562 0.039062 0.054632 17 18 21
0.105469 0.039062 0.052656 14 16 19
0.109375 0.039062 0.050623 14 16 20
0.113281 0.039062 0.049098 15 17 21
0.117188 0.039062 0.047716 18 19 23
0.121094 0.039062 0.046386 20 20 26
0.125000 0.039062 0.045167 23 22 29
0.128906 0.039062 0.043561 26 24 32
0.132812 0.039062 0.041421 27 25 35
0.136719 0.039062 0.038850 30 28 37
0.140625 0.039062 0.036063 33 31 39
0.144531 0.039062 0.032734 36 34 42
0.148438 0.039062 0.028314 40 38 45
0.152344 0.039062 0.023818 42 39 47
0.156250 0.039062 0.019453 41 38 46
0.160156 0.039062 0.014313 41 37 46
0.164062 0.039062 0.009294 40 37 46
0.167969 0.039062 0.003246 42 39 48
0.171875 0.039062 -0.002918 40 37 46
0.175781 0.039062 -0.010996 38 36 45
0.179688 0.039062 -0.020354 40 35 44
0.183594 0.039062 -0.034034 47 37 43
0.187500 0.039062 -0.051813 102 78 72
0.191406 0.039062 -0.057327 168 129 113
0.195312 0.039062 -0.048865 180 133 116
0.199219 0.039062 -0.044488 208 160 138
0.203125 0.039062 -0.043805 227 177 153
0.207031 0.039062 -0.045965 234 183 154
0.210938 0.039062 -0.049002 236 185 151
0.214844 0.039062 -0.053386 232 177 138
0.218750 0.039062 -0.057060 231 174 134
0.222656 0.039062 -0.062736 223 161 122
0.226562 0.039062 -0.070854 199 126 101
0.230469 0.039062 -0.076253 202 153 136
0.234375 0.039062 -0.081563 221 200 190
-0.195312 0.035156 0.101248 154 107 93
-0.191406 0.035156 0.105415 157 103 90
-0.187500 0.035156 0.110730 178 110 98
-0.183594 0.035156 0.115554 202 125 109
-0.179688 0.035156 0.119619 217 135 114
-0.175781 0.035156 0.122901 220 131 109
-0.171875 0.035156 0.126322 211 118 96
-0.167969 0.035156 0.127628 223 136 109
-0.164062 0.035156 0.126631 233 168 133
-0.160156 0.035156 0.122526 235 190 156
-0.156250 0.035156 0.108480 209 155 127
-0.152344 0.035156 0.023596 82 54 48
-0.148438 0.035156 0.037869 30 27 26
-0.144531 0.035156 0.043963 26 32 31
-0.140625 0.035156 0.053282 25 34 36
-0.136719 0.035156 0.059990 28 37 43
-0.132812 0.035156 0.066190 36 42 51
-0.128906 0.035156 0.072838 38 40 50
-0.125000 0.035156 0.079052 43 43 52
-0.121094 0.035156 0.084948 50 49 58
-0.117188 0.035156 0.089981 41 43 50
-0.113281 0.035156 0.095232 35 39 43
-0.109375 0.035156 0.100076 37 40 42
-0.105469 0.035156 0.104593 38 39 40
-0.101562 0.035156 0.108939 41 42 42
-0.097656 0.035156 0.112795 44 43 44
-0.093750 0.035156 0.116390 41 41 43
-0.089844 0.035156 0.119570 38 38 42
-0.085938 0.035156 0.122359 38 38 44
-0.082031 0.035156 0.124741 39 38 45
-0.078125 0.035156 0.126919 40 38 46
-0.074219 0.035156 0.128464 47 44 53
-0.070312 0.035156 0.129492 48 45 55
-0.066406 0.035156 0.130095 46 42 53
-0.062500 0.035156 0.130297 47 43 53
-0.058594 0.035156 0.130313 50 46 54
-0.054688 0.035156 0.130242 53 50 56
-0.050781 0.035156 0.129707 56 53 58
-0.046875 0.035156 0.129154 53 51 56
-0.042969 0.035156 0.127993 49 47 53
-0.039062 0.035156 0.126819 50 48 55
-0.035156 0.035156 0.125348 51 50 56
-0.031250 0.035156 0.123832 49 49 55
-0.027344 0.035156 0.122119 48 48 54
-0.023438 0.035156 0.120568 46 46 51
-0.019531 0.035156 0.118977 44 44 49
-0.015625 0.035156 0.117354 40 40 44
-0.011719 0.035156 0.115459 37 37 40
-0.007812 0.035156 0.113414 34 35 37
-0.003906 0.035156 0.111156 28 30 33
0.000000 0.035156 0.109332 26 27 31
0.003906 0.035156 0.107212 24 25 30
0.007812 0.035156 0.105187 21 23 27
0.011719 0.035156 0.102960 21 22 27
0.015625 0.035156 0.100762 21 23 27
0.019531 0.035156 0.098643 23 25 30
0.023438 0.035156 0.096851 29 31 37
0.027344 0.035156 0.094853 40 43 48
0.031250 0.035156 0.092555 43 48 52
0.035156 0.035156 0.089798 36 40 45
0.039062 0.035156 0.086409 28 31 36
0.042969 0.035156 0.083073 22 23 28
0.046875 0.035156 0.079629 19 19 23
0.050781 0.035156 0.076644 18 18 22
0.054688 0.035156 0.074316 21 22 25
0.058594 0.035156 0.072127 26 27 30
0.062500 0.035156 0.069934 24 25 28
0.066406 0.035156 0.067728 20 21 24
0.070312 0.035156 0.065810 16 17 21
0.074219 0.035156 0.064186 14 14 18
0.078125 0.035156 0.062640 13 13 17
0.082031 0.035156 0.061029 12 13 17
0.085938 0.035156 0.059748 12 13 17
0.089844 0.035156 0.058289 12 13 16
0.093750 0.035156 0.056607 12 13 17
0.097656 0.035156 0.055149 13 14 17
0.101562 0.035156 0.053121 14 15 18
0.105469 0.035156 0.051416 15 16 19
0.109375 0.035156 0.049655 17 19 23
0.113281 0.035156 0.047978 20 23 27
0.117188 0.035156 0.046790 24 26 30
0.121094 0.035156 0.045634 28 29 34
0.125000 0.035156 0.044379 33 31 37
0.128906 0.035156 0.042931 36 33 41
0.132812 0.035156 0.040776 36 33 42
0.136719 0.035156 0.038371 38 35 43
0.140625 0.035156 0.035648 40 38 45
0.144531 0.035156 0.032463 41 39 46
0.148438 0.035156 0.028244 41 39 46
0.152344 0.035156 0.023919 41 39 46
0.156250 0.035156 0.019475 41 39 46
0.160156 0.035156 0.014529 40 37 45
0.164062 0.035156 0.009184 41 38 46
0.167969 0.035156 0.003324 43 40 48
0.171875 0.035156 -0.003342 41 39 47
0.175781 0.035156 -0.011425 41 39 47
0.179688 0.035156 -0.020897 42 37 44
0.183594 0.035156 -0.034620 55 44 47
0.187500 0.035156 -0.053061 114 89 78
0.191406 0.035156 -0.054695 159 120 102
0.195312 0.035156 -0.046188 184 135 115
0.199219 0.035156 -0.041907 217 169 146
0.203125 0.035156 -0.041758 229 179 155
0.207031 0.035156 -0.043557 235 186 157
0.210938 0.035156 -0.046596 235 185 151
0.214844 0.035156 -0.051003 231 176 139
0.218750 0.035156 -0.054640 228 172 133
0.222656 0.035156 -0.059698 222 161 124
0.226562 0.035156 -0.067810 202 133 107
0.230469 0.035156 -0.073629 203 158 139
0.234375 0.035156 -0.078674 220 204 193
-0.195312 0.031250 0.098184 164 126 103
-0.191406 0.031250 0.104100 175 131 110
-0.187500 0.031250 0.109755 193 137 118
-0.183594 0.031250 0.115458 214 148 129
-0.179688 0.031250 0.119250 228 160 137
-0.175781 0.031250 0.123587 235 164 139
-0.171875 0.031250 0.126988 233 159 131
-0.167969 0.031250 0.127790 235 164 129
-0.164062 0.031250 0.128702 235 172 131
-0.160156 0.031250 0.124780 235 188 150
-0.156250 0.031250 0.121918 211 161 130
-0.152344 0.031250 0.035216 85 59 54
-0.148438 0.031250 0.036953 32 25 28
-0.144531 0.031250 0.043396 32 30 34
-0.140625 0.031250 0.052367 33 36 45
-0.136719 0.031250 0.059406 33 39 50
-0.132812 0.031250 0.066506 37 41 52
-0.128906 0.031250 0.073444 39 41 50
-0.125000 0.031250 0.079510 44 44 52
-0.121094 0.031250 0.085579 52 49 57
-0.117188 0.031250 0.090868 46 43 52
-0.113281 0.031250 0.096172 42 42 49
-0.109375 0.031250 0.101187 46 44 51
-0.105469 0.031250 0.105834 45 41 50
-0.101562 0.031250 0.110194 49 44 53
-0.097656 0.031250 0.114160 52 46 56
-0.093750 0.031250 0.117824 51 46 56
-0.089844 0.031250 0.121058 50 46 56
-0.085938 0.031250 0.123806 51 48 57
-0.082031 0.031250 0.126177 51 48 57
-0.078125 0.031250 0.128339 51 46 56
-0.074219 0.031250 0.129931 55 49 59
-0.070312 0.031250 0.130730 55 49 61
-0.066406 0.031250 0.131274 53 46 60
-0.062500 0.031250 0.131524 53 47 61
-0.058594 0.031250 0.131451 53 48 60
-0.054688 0.031250 0.131281 53 49 60
-0.050781 0.031250 0.130809 56 52 62
-0.046875 0.031250 0.130170 54 51 60
-0.042969 0.031250 0.129332 50 48 57
-0.039062 0.031250 0.128005 51 49 57
-0.035156 0.031250 0.126748 51 49 57
-0.031250 0.031250 0.125181 50 48 56
-0.027344 0.031250 0.123611 50 48 55
-0.023438 0.031250 0.122261 48 47 53
-0.019531 0.031250 0.120793 49 48 54
-0.015625 0.031250 0.119162 48 49 53
-0.011719 0.031250 0.117533 48 50 53
-0.007812 0.031250 0.115394 47 50 52
-0.003906 0.031250 0.113311 42 46 48
0.000000 0.031250 0.111237 41 45 47
0.003906 0.031250 0.109276 39 44 47
0.007812 0.031250 0.106814 37 42 45
0.011719 0.031250 0.104440 37 41 44
0.015625 0.031250 0.101981 35 40 43
0.019531 0.031250 0.099589 35 39 43
0.023438 0.031250 0.097665 37 41 45
0.027344 0.031250 0.095463 40 44 48
0.031250 0.031250 0.093170 40 44 48
0.035156 0.031250 0.090353 36 40 45
0.039062 0.031250 0.086824 32 35 40
0.042969 0.031250 0.083136 25 28 32
0.046875 0.031250 0.079446 19 21 25
0.050781 0.031250 0.075987 17 18 21
0.054688 0.031250 0.072998 18 19 22
0.058594 0.031250 0.070281 21 22 25
0.062500 0.031250 0.067938 20 22 25
0.066406 0.031250 0.065926 18 20 23
0.070312 0.031250 0.064091 17 18 21
0.074219 0.031250 0.062668 16 18 21
0.078125 0.031250 0.061297 17 18 22
0.082031 0.031250 0.059907 18 20 24
0.085938 0.031250 0.058525 19 21 24
0.089844 0.031250 0.057149 19 21 25
0.093750 0.031250 0.055851 20 22 25
0.097656 0.031250 0.054304 21 23 26
0.101562 0.031250 0.052590 22 24 27
0.105469 0.031250 0.050633 23 25 29
0.109375 0.031250 0.049071 26 29 32
0.113281 0.031250 0.047597 29 32 36
0.117188 0.031250 0.046500 31 33 38
0.121094 0.031250 0.045378 32 33 38
0.125000 0.031250 0.044096 32 31 37
0.128906 0.031250 0.042627 33 31 38
0.132812 0.031250 0.040357 34 32 39
0.136719 0.031250 0.038047 36 35 41
0.140625 0.031250 0.035330 40 38 44
0.144531 0.031250 0.032069 41 39 46
0.148438 0.031250 0.028110 41 39 46
0.152344 0.031250 0.023822 41 39 45
0.156250 0.031250 0.019168 39 37 44
0.160156 0.031250 0.014394 38 36 42
0.164062 0.031250 0.008981 39 37 44
0.167969 0.031250 0.002915 41 40 46
0.171875 0.031250 -0.004070 39 38 45
0.175781 0.031250 -0.012235 39 39 44
0.179688 0.031250 -0.021644 37 35 40
0.183594 0.031250 -0.035998 53 44 45
0.187500 0.031250 -0.054260 120 93 81
0.191406 0.031250 -0.051767 164 124 104
0.195312 0.031250 -0.043126 191 141 119
0.199219 0.031250 -0.039394 219 170 144
0.203125 0.031250 -0.039002 228 179 152
0.207031 0.031250 -0.041186 235 187 156
0.210938 0.031250 -0.043877 233 183 149
0.214844 0.031250 -0.048433 228 175 138
0.218750 0.031250 -0.052860 226 171 133
0.222656 0.031250 -0.058028 221 166 129
0.226562 0.031250 -0.065124 204 145 116
0.230469 0.031250 -0.071968 192 146 127
0.234375 0.031250 -0.075956 210 193 183
-0.195312 0.027344 0.096028 150 116 88
-0.191406 0.027344 0.102701 176 138 109
-0.187500 0.027344 0.109771 194 146 117
-0.183594 0.027344 0.114785 212 152 124
-0.179688 0.027344 0.119509 226 163 133
-0.175781 0.027344 0.123801 237 175 143
-0.171875 0.027344 0.127095 238 176 140
-0.167969 0.027344 0.127663 235 171 128
-0.164062 0.027344 0.128206 227 163 117
-0.160156 0.027344 0.126693 227 176 133
-0.156250 0.027344 0.124656 204 159 127
-0.152344 0.027344 0.073649 99 76 68
-0.148438 0.027344 0.034002 39 30 32
-0.144531 0.027344 0.043984 32 26 29
-0.140625 0.027344 0.051563 36 35 41
-0.136719 0.027344 0.059252 35 37 47
-0.132812 0.027344 0.066871 36 39 49
-0.128906 0.027344 0.073814 40 40 49
-0.125000 0.027344 0.079878 43 41 49
-0.121094 0.027344 0.085996 51 46 55
-0.117188 0.027344 0.091392 49 45 54
-0.113281 0.027344 0.096686 50 48 54
-0.109375 0.027344 0.101822 56 53 59
-0.105469 0.027344 0.106703 52 47 57
-0.101562 0.027344 0.110956 55 50 60
-0.097656 0.027344 0.115032 58 52 64
-0.093750 0.027344 0.118652 58 52 65
-0.089844 0.027344 0.121804 60 53 66
-0.085938 0.027344 0.124619 61 55 68
-0.082031 0.027344 0.127128 60 56 67
-0.078125 0.027344 0.129137 59 54 64
-0.074219 0.027344 0.130567 59 54 64
-0.070312 0.027344 0.131589 56 51 63
-0.066406 0.027344 0.131996 53 47 61
-0.062500 0.027344 0.132229 52 47 60
-0.058594 0.027344 0.132154 52 48 60
-0.054688 0.027344 0.131905 50 46 58
-0.050781 0.027344 0.131419 52 48 60
-0.046875 0.027344 0.130740 51 48 59
-0.042969 0.027344 0.129924 50 47 57
-0.039062 0.027344 0.128884 49 48 57
-0.035156 0.027344 0.127468 47 46 55
-0.031250 0.027344 0.126017 47 46 54
-0.027344 0.027344 0.124609 47 46 53
-0.023438 0.027344 0.123229 45 45 52
-0.019531 0.027344 0.121771 45 45 51
-0.015625 0.027344 0.120365 43 44 50
-0.011719 0.027344 0.118641 43 46 50
-0.007812 0.027344 0.116772 43 47 50
-0.003906 0.027344 0.114726 40 45 48
0.000000 0.027344 0.112625 42 48 50
0.003906 0.027344 0.110400 44 50 51
0.007812 0.027344 0.107781 45 51 52
0.011719 0.027344 0.105240 46 52 53
0.015625 0.027344 0.102482 44 50 52
0.019531 0.027344 0.099932 43 48 50
0.023438 0.027344 0.097642 41 46 48
0.027344 0.027344 0.095459 40 45 48
0.031250 0.027344 0.093012 39 44 47
0.035156 0.027344 0.089930 38 43 46
0.039062 0.027344 0.086289 36 41 44
0.042969 0.027344 0.082699 32 36 40
0.046875 0.027344 0.078829 28 32 35
0.050781 0.027344 0.075271 25 28 31
0.054688 0.027344 0.071821 26 29 32
0.058594 0.027344 0.068865 28 31 33
0.062500 0.027344 0.066290 28 31 33
0.066406 0.027344 0.064236 28 30 33
0.070312 0.027344 0.062615 26 29 32
0.074219 0.027344 0.061366 26 28 31
0.078125 0.027344 0.060246 27 30 33
0.082031 0.027344 0.059034 28 30 33
0.085938 0.027344 0.057849 27 29 32
0.089844 0.027344 0.056505 26 29 31
0.093750 0.027344 0.055073 25 27 30
0.097656 0.027344 0.053511 24 26 29
0.101562 0.027344 0.051823 22 24 27
0.105469 0.027344 0.050281 22 23 27
0.109375 0.027344 0.048567 24 25 29
0.113281 0.027344 0.047170 27 29 33
0.117188 0.027344 0.045925 31 32 37
0.121094 0.027344 0.044965 33 34 39
0.125000 0.027344 0.043695 35 35 41
0.128906 0.027344 0.041996 36 36 42
0.132812 0.027344 0.040034 38 37 43
0.136719 0.027344 0.037612 39 38 44
0.140625 0.027344 0.035018 40 39 45
0.144531 0.027344 0.032024 40 39 45
0.148438 0.027344 0.028009 39 39 45
0.152344 0.027344 0.023702 39 38 44
0.156250 0.027344 0.019194 37 36 42
0.160156 0.027344 0.014181 36 36 42
0.164062 0.027344 0.008757 40 39 45
0.167969 0.027344 0.002317 42 41 47
0.171875 0.027344 -0.004836 39 40 45
0.175781 0.027344 -0.013188 38 40 44
0.179688 0.027344 -0.022431 36 37 40
0.183594 0.027344 -0.037912 52 45 46
0.187500 0.027344 -0.055570 118 93 81
0.191406 0.027344 -0.049722 165 124 107
0.195312 0.027344 -0.041064 191 142 120
0.199219 0.027344 -0.037014 218 170 142
0.203125 0.027344 -0.036967 229 181 153
0.207031 0.027344 -0.038532 234 187 155
0.210938 0.027344 -0.041539 231 181 146
0.214844 0.027344 -0.046387 224 172 137
0.218750 0.027344 -0.050485 219 165 128
0.222656 0.027344 -0.055800 215 162 127
0.226562 0.027344 -0.062969 205 152 121
0.230469 0.027344 -0.069564 178 130 109
0.234375 0.027344 -0.073796 209 187 173
0.238281 0.027344 -0.080606 214 209 199
-0.195312 0.023438 0.094936 146 105 81
-0.191406 0.023438 0.100870 186 142 112
-0.187500 0.023438 0.107966 197 145 114
-0.183594 0.023438 0.114421 209 146 117
-0.179688 0.023438 0.119971 222 156 126
-0.175781 0.023438 0.124042 234 169 138
-0.171875 0.023438 0.126907 236 174 138
-0.167969 0.023438 0.128029 234 172 131
-0.164062 0.023438 0.128326 228 168 125
-0.160156 0.023438 0.128632 225 175 134
-0.156250 0.023438 0.124031 206 162 129
-0.152344 0.023438 0.114440 132 105 91
-0.148438 0.023438 0.032730 52 41 40
-0.144531 0.023438 0.044196 29 23 24
-0.140625 0.023438 0.050283 36 32 36
-0.136719 0.023438 0.058778 38 38 46
-0.132812 0.023438 0.067501 40 40 50
-0.128906 0.023438 0.074354 44 44 53
-0.125000 0.023438 0.080386 45 42 50
-0.121094 0.023438 0.086519 51 46 54
-0.117188 0.023438 0.091603 49 46 53
-0.113281 0.023438 0.097049 50 49 53
-0.109375 0.023438 0.102146 56 53 57
-0.105469 0.023438 0.107124 52 48 56
-0.101562 0.023438 0.111371 55 50 59
-0.097656 0.023438 0.115516 56 51 62
-0.093750 0.023438 0.119262 55 49 62
-0.089844 0.023438 0.122497 55 49 64
-0.085938 0.023438 0.125467 55 50 65
-0.082031 0.023438 0.127749 56 51 66
-0.078125 0.023438 0.129888 56 52 66
-0.074219 0.023438 0.131476 57 53 67
-0.070312 0.023438 0.132295 57 54 68
-0.066406 0.023438 0.132645 57 53 67
-0.062500 0.023438 0.132792 57 53 66
-0.058594 0.023438 0.132659 57 54 66
-0.054688 0.023438 0.132416 56 53 65
-0.050781 0.023438 0.132048 56 54 65
-0.046875 0.023438 0.131318 55 54 63
-0.042969 0.023438 0.130372 54 53 62
-0.039062 0.023438 0.129276 54 53 61
-0.035156 0.023438 0.128084 52 51 59
-0.031250 0.023438 0.126615 51 50 58
-0.027344 0.023438 0.125255 50 50 57
-0.023438 0.023438 0.124126 49 49 55
-0.019531 0.023438 0.122561 48 49 55
-0.015625 0.023438 0.121269 46 48 53
-0.011719 0.023438 0.119583 47 49 52
-0.007812 0.023438 0.117657 46 49 52
-0.003906 0.023438 0.115557 43 46 48
0.000000 0.023438 0.113501 44 48 50
0.003906 0.023438 0.111101 44 48 50
0.007812 0.023438 0.108443 43 47 48
0.011719 0.023438 0.105437 42 46 48
0.015625 0.023438 0.102475 41 45 47
0.019531 0.023438 0.099827 40 45 47
0.023438 0.023438 0.097518 41 45 47
0.027344 0.023438 0.095423 41 45 47
0.031250 0.023438 0.093070 41 45 47
0.035156 0.023438 0.090188 40 44 47
0.039062 0.023438 0.086348 36 40 44
0.042969 0.023438 0.081835 33 37 41
0.046875 0.023438 0.077470 33 37 41
0.050781 0.023438 0.073650 32 37 40
0.054688 0.023438 0.070096 32 36 39
0.058594 0.023438 0.066905 31 34 37
0.062500 0.023438 0.064298 29 33 35
0.066406 0.023438 0.062210 29 32 35
0.070312 0.023438 0.060958 28 31 34
0.074219 0.023438 0.059987 28 31 33
0.078125 0.023438 0.058908 30 32 34
0.082031 0.023438 0.057943 29 32 34
0.085938 0.023438 0.056535 29 31 34
0.089844 0.023438 0.055379 31 33 35
0.093750 0.023438 0.054001 32 34 36
0.097656 0.023438 0.052585 31 32 35
0.101562 0.023438 0.050889 29 31 34
0.105469 0.023438 0.049226 29 30 33
0.109375 0.023438 0.047674 30 31 35
0.113281 0.023438 0.046333 32 33 38
0.117188 0.023438 0.045170 33 34 39
0.121094 0.023438 0.044092 35 35 40
0.125000 0.023438 0.042945 36 36 42
0.128906 0.023438 0.041436 37 37 42
0.132812 0.023438 0.039470 38 38 43
0.136719 0.023438 0.037074 38 38 44
0.140625 0.023438 0.034659 38 38 44
0.144531 0.023438 0.031643 38 38 44
0.148438 0.023438 0.027615 38 38 44
0.152344 0.023438 0.023452 38 38 44
0.156250 0.023438 0.018802 37 37 43
0.160156 0.023438 0.013962 38 38 43
0.164062 0.023438 0.008317 41 41 46
0.167969 0.023438 0.001972 42 42 47
0.171875 0.023438 -0.005398 40 41 45
0.175781 0.023438 -0.014318 39 41 44
0.179688 0.023438 -0.023580 39 40 42
0.183594 0.023438 -0.040140 51 46 46
0.187500 0.023438 -0.057424 103 83 73
0.191406 0.023438 -0.048016 161 121 108
0.195312 0.023438 -0.038673 192 145 124
0.199219 0.023438 -0.034370 219 172 143
0.203125 0.023438 -0.034442 230 185 156
0.207031 0.023438 -0.036546 231 185 152
0.210938 0.023438 -0.040050 226 174 140
0.214844 0.023438 -0.044918 219 169 134
0.218750 0.023438 -0.049237 213 160 125
0.222656 0.023438 -0.054666 211 160 124
0.226562 0.023438 -0.061148 212 164 130
0.230469 0.023438 -0.067964 185 135 109
0.234375 0.023438 -0.071401 205 179 159
0.238281 0.023438 -0.077527 231 225 214
-0.195312 0.019531 0.092172 143 99 78
-0.191406 0.019531 0.099284 187 139 110
-0.187500 0.019531 0.108151 195 142 111
-0.183594 0.019531 0.114085 202 141 113
-0.179688 0.019531 0.119454 216 150 122
-0.175781 0.019531 0.124467 229 165 134
-0.171875 0.019531 0.126997 233 174 139
-0.167969 0.019531 0.127912 233 176 137
-0.164062 0.019531 0.128231 229 174 132
-0.160156 0.019531 0.129829 223 170 129
-0.156250 0.019531 0.125209 207 159 124
-0.152344 0.019531 0.126401 168 133 111
-0.148438 0.019531 0.054987 77 58 52
-0.144531 0.019531 0.040868 32 24 24
-0.140625 0.019531 0.049242 43 35 37
-0.136719 0.019531 0.058374 50 44 50
-0.132812 0.019531 0.067593 46 44 53
-0.128906 0.019531 0.074496 46 45 55
-0.125000 0.019531 0.080195 45 41 50
-0.121094 0.019531 0.086269 51 45 54
-0.117188 0.019531 0.091477 50 46 54
-0.113281 0.019531 0.096943 50 48 53
-0.109375 0.019531 0.102137 56 53 58
-0.105469 0.019531 0.107172 55 52 59
-0.101562 0.019531 0.111495 58 54 62
-0.097656 0.019531 0.115595 59 55 64
-0.093750 0.019531 0.119328 57 52 64
-0.089844 0.019531 0.122697 55 51 64
-0.085938 0.019531 0.125487 54 50 65
-0.082031 0.019531 0.128059 54 50 65
-0.078125 0.019531 0.130095 54 50 65
-0.074219 0.019531 0.131563 55 51 66
-0.070312 0.019531 0.132578 56 52 67
-0.066406 0.019531 0.132973 56 53 67
-0.062500 0.019531 0.133070 56 53 66
-0.058594 0.019531 0.132964 55 53 65
-0.054688 0.019531 0.132625 54 53 65
-0.050781 0.019531 0.132035 55 54 65
-0.046875 0.019531 0.131429 54 54 63
-0.042969 0.019531 0.130511 53 53 63
-0.039062 0.019531 0.129377 54 54 63
-0.035156 0.019531 0.128246 53 53 62
-0.031250 0.019531 0.126778 53 53 60
-0.027344 0.019531 0.125457 51 52 58
-0.023438 0.019531 0.124103 50 51 57
-0.019531 0.019531 0.122669 50 52 57
-0.015625 0.019531 0.121328 49 51 55
-0.011719 0.019531 0.119588 50 52 55
-0.007812 0.019531 0.117683 48 51 53
-0.003906 0.019531 0.115554 44 48 49
0.000000 0.019531 0.113442 44 48 49
0.003906 0.019531 0.111075 42 46 47
0.007812 0.019531 0.108357 39 43 45
0.011719 0.019531 0.105303 38 41 43
0.015625 0.019531 0.102299 36 40 42
0.019531 0.019531 0.099384 37 41 43
0.023438 0.019531 0.097142 37 41 43
0.027344 0.019531 0.094670 36 40 43
0.031250 0.019531 0.092052 37 40 43
0.035156 0.019531 0.088833 37 41 44
0.039062 0.019531 0.084931 35 39 41
0.042969 0.019531 0.080556 35 39 42
0.046875 0.019531 0.075544 37 42 44
0.050781 0.019531 0.070895 38 42 44
0.054688 0.019531 0.067088 36 40 41
0.058594 0.019531 0.063793 32 36 37
0.062500 0.019531 0.061338 29 33 34
0.066406 0.019531 0.059479 29 32 34
0.070312 0.019531 0.058295 28 31 33
0.074219 0.019531 0.057578 30 32 33
0.078125 0.019531 0.056617 33 35 36
0.082031 0.019531 0.055777 33 35 36
0.085938 0.019531 0.054706 34 36 37
0.089844 0.019531 0.053440 36 39 40
0.093750 0.019531 0.052221 39 41 42
0.097656 0.019531 0.050914 38 40 42
0.101562 0.019531 0.049439 36 38 40
0.105469 0.019531 0.047809 34 36 39
0.109375 0.019531 0.046331 33 35 38
0.113281 0.019531 0.044982 34 35 39
0.117188 0.019531 0.043908 34 35 39
0.121094 0.019531 0.042747 35 35 40
0.125000 0.019531 0.041693 37 37 42
0.128906 0.019531 0.040395 38 38 43
0.132812 0.019531 0.038267 39 39 44
0.136719 0.019531 0.036184 38 39 44
0.140625 0.019531 0.033780 38 38 43
0.144531 0.019531 0.030825 39 39 44
0.148438 0.019531 0.027090 39 40 45
0.152344 0.019531 0.022784 39 40 45
0.156250 0.019531 0.018231 39 39 44
0.160156 0.019531 0.013504 40 40 45
0.164062 0.019531 0.007875 41 41 46
0.167969 0.019531 0.001354 41 42 45
0.171875 0.019531 -0.006528 39 41 44
0.175781 0.019531 -0.015401 37 40 42
0.179688 0.019531 -0.024358 38 40 43
0.183594 0.019531 -0.042421 41 39 40
0.187500 0.019531 -0.059596 69 57 52
0.191406 0.019531 -0.047450 140 106 95
0.195312 0.019531 -0.037148 189 143 123
0.199219 0.019531 -0.032327 217 170 141
0.203125 0.019531 -0.031981 231 189 160
0.207031 0.019531 -0.034631 230 184 150
0.210938 0.019531 -0.037639 219 165 131
0.214844 0.019531 -0.042995 212 162 129
0.218750 0.019531 -0.048136 206 154 121
0.222656 0.019531 -0.053630 204 150 116
0.226562 0.019531 -0.059989 212 163 126
0.230469 0.019531 -0.065842 196 145 114
0.234375 0.019531 -0.069541 200 168 146
0.238281 0.019531 -0.074623 202 185 181
-0.195312 0.015625 0.091268 139 98 76
-0.191406 0.015625 0.098175 178 129 98
-0.187500 0.015625 0.107743 195 144 111
-0.183594 0.015625 0.113720 202 146 117
-0.179688 0.015625 0.119331 213 154 127
-0.175781 0.015625 0.123975 226 166 137
-0.171875 0.015625 0.127491 231 176 142
-0.167969 0.015625 0.128323 233 180 142
-0.164062 0.015625 0.128145 230 177 136
-0.160156 0.015625 0.130094 224 166 126
-0.156250 0.015625 0.128338 214 161 126
-0.152344 0.015625 0.125674 205 165 139
-0.148438 0.015625 0.098986 120 85 75
-0.144531 0.015625 0.038941 34 24 23
-0.140625 0.015625 0.048902 36 26 28
-0.136719 0.015625 0.057248 48 37 43
-0.132812 0.015625 0.067394 46 41 49
-0.128906 0.015625 0.074666 44 43 52
-0.125000 0.015625 0.080546 44 41 49
-0.121094 0.015625 0.086302 50 45 54
-0.117188 0.015625 0.091420 50 47 55
-0.113281 0.015625 0.096959 49 47 54
-0.109375 0.015625 0.102265 52 50 58
-0.105469 0.015625 0.107318 54 52 61
-0.101562 0.015625 0.111796 57 55 65
-0.097656 0.015625 0.115785 59 56 68
-0.093750 0.015625 0.119597 58 55 69
-0.089844 0.015625 0.122815 58 55 69
-0.085938 0.015625 0.125830 56 54 68
-0.082031 0.015625 0.128286 56 53 67
-0.078125 0.015625 0.130427 56 53 66
-0.074219 0.015625 0.132047 56 53 66
-0.070312 0.015625 0.132651 56 53 67
-0.066406 0.015625 0.133193 56 54 67
-0.062500 0.015625 0.133370 55 53 66
-0.058594 0.015625 0.133159 54 53 65
-0.054688 0.015625 0.132947 54 53 64
-0.050781 0.015625 0.132408 54 53 64
-0.046875 0.015625 0.131586 53 53 63
-0.042969 0.015625 0.130811 53 53 62
-0.039062 0.015625 0.129597 54 53 62
-0.035156 0.015625 0.128411 54 54 62
-0.031250 0.015625 0.127183 54 54 61
-0.027344 0.015625 0.125735 53 53 60
-0.023438 0.015625 0.124322 52 53 59
-0.019531 0.015625 0.122809 53 54 59
-0.015625 0.015625 0.121133 52 54 58
-0.011719 0.015625 0.119596 53 56 58
-0.007812 0.015625 0.117727 51 55 57
-0.003906 0.015625 0.115759 47 52 53
0.000000 0.015625 0.113666 46 51 53
0.003906 0.015625 0.111343 44 49 51
0.007812 0.015625 0.108547 42 47 49
0.011719 0.015625 0.105507 41 46 48
0.015625 0.015625 0.102277 39 43 46
0.019531 0.015625 0.099141 38 42 44
0.023438 0.015625 0.096414 36 40 43
0.027344 0.015625 0.093408 34 38 41
0.031250 0.015625 0.090372 35 38 41
0.035156 0.015625 0.086878 35 38 41
0.039062 0.015625 0.082620 34 37 40
0.042969 0.015625 0.077971 35 39 41
0.046875 0.015625 0.072916 36 40 41
0.050781 0.015625 0.067713 31 35 37
0.054688 0.015625 0.063647 26 29 31
0.058594 0.015625 0.060674 23 26 28
0.062500 0.015625 0.058414 23 25 27
0.066406 0.015625 0.056749 23 26 28
0.070312 0.015625 0.055834 23 25 27
0.074219 0.015625 0.055223 23 25 27
0.078125 0.015625 0.054558 25 27 29
0.082031 0.015625 0.053581 26 28 30
0.085938 0.015625 0.052664 27 28 30
0.089844 0.015625 0.051516 28 30 32
0.093750 0.015625 0.050470 30 32 34
0.097656 0.015625 0.049321 31 33 35
0.101562 0.015625 0.047830 31 33 36
0.105469 0.015625 0.046402 31 33 36
0.109375 0.015625 0.044839 31 33 36
0.113281 0.015625 0.043642 32 34 37
0.117188 0.015625 0.042479 33 33 37
0.121094 0.015625 0.041580 34 35 39
0.125000 0.015625 0.040544 37 37 42
0.128906 0.015625 0.039093 40 40 45
0.132812 0.015625 0.037392 40 41 46
0.136719 0.015625 0.035124 39 39 44
0.140625 0.015625 0.032799 37 38 43
0.144531 0.015625 0.030079 38 38 43
0.148438 0.015625 0.026256 39 39 44
0.152344 0.015625 0.022092 39 39 44
0.156250 0.015625 0.017650 39 39 44
0.160156 0.015625 0.012756 40 40 45
0.164062 0.015625 0.007058 40 40 44
0.167969 0.015625 0.000416 39 40 43
0.171875 0.015625 -0.007244 39 40 43
0.175781 0.015625 -0.016715 38 41 43
0.179688 0.015625 -0.025727 41 44 46
0.183594 0.015625 -0.044621 40 39 41
0.187500 0.015625 -0.062245 51 43 41
0.191406 0.015625 -0.047480 121 90 82
0.195312 0.015625 -0.036472 185 140 121
0.199219 0.015625 -0.030871 214 166 139
0.203125 0.015625 -0.029875 231 190 162
0.207031 0.015625 -0.032147 229 185 151
0.210938 0.015625 -0.035974 215 163 131
0.214844 0.015625 -0.041699 209 160 129
0.218750 0.015625 -0.047723 196 143 113
0.222656 0.015625 -0.053386 188 130 99
0.226562 0.015625 -0.058367 203 147 111
0.230469 0.015625 -0.063530 199 145 112
0.234375 0.015625 -0.067443 202 165 141
0.238281 0.015625 -0.070913 194 172 167
-0.191406 0.011719 0.097999 171 124 92
-0.187500 0.011719 0.107932 198 148 115
-0.183594 0.011719 0.114357 206 154 126
-0.179688 0.011719 0.119589 215 161 135
-0.175781 0.011719 0.125206 225 171 143
-0.171875 0.011719 0.128057 230 179 147
-0.167969 0.011719 0.128977 233 184 148
-0.164062 0.011719 0.129265 233 183 143
-0.160156 0.011719 0.130932 228 170 130
-0.156250 0.011719 0.130928 222 169 133
-0.152344 0.011719 0.126093 228 189 164
-0.148438 0.011719 0.119138 181 135 118
-0.144531 0.011719 0.050799 52 36 35
-0.140625 0.011719 0.045818 33 22 25
-0.136719 0.011719 0.057623 46 32 37
-0.132812 0.011719 0.066614 52 43 50
-0.128906 0.011719 0.074936 50 48 56
-0.125000 0.011719 0.080818 48 46 54
-0.121094 0.011719 0.086579 51 48 57
-0.117188 0.011719 0.091480 51 50 58
-0.113281 0.011719 0.096885 48 47 55
-0.109375 0.011719 0.102300 50 48 58
-0.105469 0.011719 0.107512 51 50 61
-0.101562 0.011719 0.111782 53 51 64
-0.097656 0.011719 0.116037 55 53 67
-0.093750 0.011719 0.119849 55 53 67
-0.089844 0.011719 0.123113 56 53 68
-0.085938 0.011719 0.126047 55 53 67
-0.082031 0.011719 0.128577 54 52 66
-0.078125 0.011719 0.130867 55 52 66
-0.074219 0.011719 0.132401 56 54 66
-0.070312 0.011719 0.133179 56 55 67
-0.066406 0.011719 0.133624 56 55 68
-0.062500 0.011719 0.133892 55 55 68
-0.058594 0.011719 0.133746 55 54 67
-0.054688 0.011719 0.133490 55 54 66
-0.050781 0.011719 0.132898 55 54 65
-0.046875 0.011719 0.132085 55 54 64
-0.042969 0.011719 0.131172 54 53 63
-0.039062 0.011719 0.130295 55 54 63
-0.035156 0.011719 0.128987 56 55 63
-0.031250 0.011719 0.127645 55 54 61
-0.027344 0.011719 0.126132 53 53 59
-0.023438 0.011719 0.124634 52 52 58
-0.019531 0.011719 0.122990 51 52 56
-0.015625 0.011719 0.121486 50 51 54
-0.011719 0.011719 0.119664 49 51 54
-0.007812 0.011719 0.117742 47 50 52
-0.003906 0.011719 0.115667 45 48 50
0.000000 0.011719 0.113469 44 49 50
0.003906 0.011719 0.110979 44 48 50
0.007812 0.011719 0.108490 44 48 50
0.011719 0.011719 0.105475 44 49 51
0.015625 0.011719 0.102274 42 47 49
0.019531 0.011719 0.098747 39 43 45
0.023438 0.011719 0.095320 36 40 43
0.027344 0.011719 0.092005 34 38 41
0.031250 0.011719 0.088365 33 37 39
0.035156 0.011719 0.084372 31 34 37
0.039062 0.011719 0.079910 29 32 35
0.042969 0.011719 0.074820 28 31 34
0.046875 0.011719 0.069162 25 28 31
0.050781 0.011719 0.063682 18 20 24
0.054688 0.011719 0.060165 13 15 19
0.058594 0.011719 0.057646 13 14 18
0.062500 0.011719 0.055775 14 15 20
0.066406 0.011719 0.054646 15 17 21
0.070312 0.011719 0.053851 16 17 21
0.074219 0.011719 0.053126 15 16 20
0.078125 0.011719 0.052357 16 17 21
0.082031 0.011719 0.051747 18 19 23
0.085938 0.011719 0.050844 19 20 24
0.089844 0.011719 0.049794 20 21 25
0.093750 0.011719 0.049005 23 24 28
0.097656 0.011719 0.047646 26 27 31
0.101562 0.011719 0.046406 29 30 33
0.105469 0.011719 0.045000 31 32 35
0.109375 0.011719 0.043491 33 34 37
0.113281 0.011719 0.042213 34 35 39
0.117188 0.011719 0.041152 34 34 38
0.121094 0.011719 0.040228 34 34 38
0.125000 0.011719 0.039338 36 36 40
0.128906 0.011719 0.037999 38 38 42
0.132812 0.011719 0.036284 38 38 43
0.136719 0.011719 0.034214 37 38 42
0.140625 0.011719 0.032081 36 37 42
0.144531 0.011719 0.029386 37 37 42
0.148438 0.011719 0.025542 38 38 43
0.152344 0.011719 0.021388 38 38 42
0.156250 0.011719 0.017040 38 38 42
0.160156 0.011719 0.012191 39 39 43
0.164062 0.011719 0.006371 38 39 42
0.167969 0.011719 -0.000362 37 38 42
0.171875 0.011719 -0.008348 40 41 44
0.175781 0.011719 -0.017728 41 43 46
0.179688 0.011719 -0.026471 41 44 47
0.183594 0.011719 -0.047282 37 36 39
0.187500 0.011719 -0.066680 38 31 32
0.191406 0.011719 -0.049008 100 67 63
0.195312 0.011719 -0.035526 181 131 113
0.199219 0.011719 -0.029311 209 159 134
0.203125 0.011719 -0.028517 226 180 153
0.207031 0.011719 -0.030298 225 179 146
0.210938 0.011719 -0.034366 216 166 136
0.214844 0.011719 -0.040473 210 163 133
0.218750 0.011719 -0.046913 183 129 100
0.222656 0.011719 -0.052790 172 113 84
0.226562 0.011719 -0.057117 201 143 106
0.230469 0.011719 -0.061305 200 145 108
0.234375 0.011719 -0.065304 192 152 122
0.238281 0.011719 -0.068057 197 175 163
0.242188 0.011719 -0.077161 184 180 177
-0.191406 0.007812 0.097424 171 125 93
-0.187500 0.007812 0.108536 201 151 118
