ply
    format ascii 1.0
    element vertex 95946
    property float x
    property float y
    property float z
    property uchar red
    property uchar green
    property uchar blue
    end_header
0.058594 -0.109375 -0.136536 205 149 110
0.062500 -0.109375 -0.135622 211 156 115
0.066406 -0.109375 -0.134343 213 158 116
0.070312 -0.109375 -0.132995 216 163 121
0.074219 -0.109375 -0.131044 216 164 122
0.078125 -0.109375 -0.129218 216 166 123
0.082031 -0.109375 -0.127018 214 164 123
0.085938 -0.109375 -0.124847 208 158 118
0.089844 -0.109375 -0.122288 202 153 115
0.093750 -0.109375 -0.120092 194 147 112
0.097656 -0.109375 -0.117634 184 142 108
0.101562 -0.109375 -0.114970 175 138 106
0.105469 -0.109375 -0.112418 169 138 111
0.109375 -0.109375 -0.109162 157 130 113
0.113281 -0.109375 -0.105505 125 106 98
0.117188 -0.109375 -0.101997 112 102 96
0.121094 -0.109375 -0.098458 136 129 128
0.125000 -0.109375 -0.095164 138 132 134
0.128906 -0.109375 -0.091332 136 130 131
0.132812 -0.109375 -0.086724 131 123 124
0.136719 -0.109375 -0.082301 116 109 110
0.140625 -0.109375 -0.077955 107 102 102
0.144531 -0.109375 -0.073572 107 103 103
0.148438 -0.109375 -0.068477 129 126 126
0.152344 -0.109375 -0.061240 172 169 169
0.156250 -0.109375 -0.053741 219 215 215
0.160156 -0.109375 -0.039699 234 228 228
-0.281250 -0.113281 0.026700 31 26 28
-0.277344 -0.113281 0.020999 40 27 35
-0.273438 -0.113281 -0.004160 142 107 111
-0.269531 -0.113281 -0.024705 180 139 127
-0.265625 -0.113281 -0.037473 194 147 126
-0.261719 -0.113281 -0.045041 201 147 122
-0.257812 -0.113281 -0.051823 201 142 117
-0.253906 -0.113281 -0.057991 203 140 116
-0.250000 -0.113281 -0.064063 207 141 117
-0.246094 -0.113281 -0.069213 212 145 120
-0.242188 -0.113281 -0.074556 216 149 123
-0.238281 -0.113281 -0.079987 218 149 122
-0.234375 -0.113281 -0.085740 219 148 120
-0.230469 -0.113281 -0.091617 219 145 118
-0.226562 -0.113281 -0.097518 219 144 116
-0.222656 -0.113281 -0.103447 221 145 116
-0.218750 -0.113281 -0.108866 222 147 116
-0.214844 -0.113281 -0.113953 224 148 116
-0.210938 -0.113281 -0.118483 226 150 116
-0.207031 -0.113281 -0.122673 227 149 116
-0.203125 -0.113281 -0.126615 227 151 118
-0.199219 -0.113281 -0.129561 225 146 115
-0.195312 -0.113281 -0.132513 220 136 108
-0.191406 -0.113281 -0.135607 214 134 106
-0.187500 -0.113281 -0.138175 204 127 100
-0.183594 -0.113281 -0.141305 185 113 90
-0.179688 -0.113281 -0.144882 156 90 71
-0.175781 -0.113281 -0.147290 131 67 51
-0.171875 -0.113281 -0.149409 122 75 72
-0.167969 -0.113281 -0.151169 92 67 74
-0.164062 -0.113281 -0.152645 75 46 58
-0.160156 -0.113281 -0.153776 72 34 49
-0.156250 -0.113281 -0.154867 79 32 50
-0.152344 -0.113281 -0.155840 83 31 53
-0.148438 -0.113281 -0.156633 85 31 54
-0.144531 -0.113281 -0.157135 84 32 54
-0.140625 -0.113281 -0.157820 82 33 54
-0.136719 -0.113281 -0.157935 79 34 55
-0.132812 -0.113281 -0.158202 78 35 55
-0.128906 -0.113281 -0.158214 79 32 52
-0.125000 -0.113281 -0.158117 78 31 51
-0.121094 -0.113281 -0.158018 75 30 50
-0.117188 -0.113281 -0.157516 75 29 49
-0.113281 -0.113281 -0.157230 74 28 48
-0.109375 -0.113281 -0.156887 73 27 47
-0.105469 -0.113281 -0.156696 72 28 47
-0.101562 -0.113281 -0.156573 72 28 47
-0.097656 -0.113281 -0.156482 72 28 47
-0.093750 -0.113281 -0.156300 72 28 47
-0.089844 -0.113281 -0.156263 71 29 47
-0.085938 -0.113281 -0.156005 71 29 47
-0.082031 -0.113281 -0.155756 71 29 47
-0.078125 -0.113281 -0.155573 71 29 47
-0.074219 -0.113281 -0.155327 69 29 47
-0.070312 -0.113281 -0.155141 69 29 47
-0.066406 -0.113281 -0.154891 71 27 46
-0.062500 -0.113281 -0.154647 71 27 46
-0.058594 -0.113281 -0.154559 71 27 46
-0.054688 -0.113281 -0.154460 71 27 46
-0.050781 -0.113281 -0.154192 71 27 46
-0.046875 -0.113281 -0.154108 71 27 46
-0.042969 -0.113281 -0.153859 71 27 46
-0.039062 -0.113281 -0.153456 71 27 46
-0.035156 -0.113281 -0.153123 71 27 46
-0.031250 -0.113281 -0.152568 71 27 46
-0.027344 -0.113281 -0.151911 72 28 47
-0.023438 -0.113281 -0.151253 72 28 47
-0.019531 -0.113281 -0.150338 72 28 47
-0.015625 -0.113281 -0.149716 73 29 48
-0.011719 -0.113281 -0.148904 73 29 48
-0.007812 -0.113281 -0.148297 73 29 48
-0.003906 -0.113281 -0.147687 71 40 50
0.000000 -0.113281 -0.147124 67 36 46
0.003906 -0.113281 -0.146481 64 36 45
0.007812 -0.113281 -0.145993 67 38 48
0.011719 -0.113281 -0.145427 63 35 43
0.015625 -0.113281 -0.145015 76 48 56
0.019531 -0.113281 -0.144401 136 112 118
0.023438 -0.113281 -0.143727 148 133 137
0.027344 -0.113281 -0.142995 79 66 69
0.031250 -0.113281 -0.141787 43 33 34
0.035156 -0.113281 -0.141123 39 30 27
0.039062 -0.113281 -0.140742 70 54 45
0.042969 -0.113281 -0.139849 119 91 74
0.046875 -0.113281 -0.138562 148 106 83
0.050781 -0.113281 -0.137581 177 124 92
0.054688 -0.113281 -0.136601 196 140 101
0.058594 -0.113281 -0.136065 205 146 105
0.062500 -0.113281 -0.135227 211 154 111
0.066406 -0.113281 -0.134031 214 158 115
0.070312 -0.113281 -0.132471 217 164 121
0.074219 -0.113281 -0.130771 216 165 122
0.078125 -0.113281 -0.128766 215 164 122
0.082031 -0.113281 -0.126480 211 160 120
0.085938 -0.113281 -0.124429 205 153 115
0.089844 -0.113281 -0.121989 200 151 114
0.093750 -0.113281 -0.119447 193 148 112
0.097656 -0.113281 -0.117279 179 140 107
0.101562 -0.113281 -0.114768 165 133 106
0.105469 -0.113281 -0.111914 155 129 112
0.109375 -0.113281 -0.108564 137 120 112
0.113281 -0.113281 -0.105272 102 96 93
0.117188 -0.113281 -0.101513 113 108 106
0.121094 -0.113281 -0.098292 150 143 144
0.125000 -0.113281 -0.095073 143 136 138
0.128906 -0.113281 -0.091233 127 120 121
0.132812 -0.113281 -0.086434 121 111 112
0.136719 -0.113281 -0.082118 116 108 109
0.140625 -0.113281 -0.077670 118 113 113
0.144531 -0.113281 -0.073363 127 123 123
0.148438 -0.113281 -0.068253 149 146 146
0.152344 -0.113281 -0.061138 181 178 178
0.156250 -0.113281 -0.053383 217 214 214
0.160156 -0.113281 -0.042702 231 225 226
-0.281250 -0.117188 0.025040 38 31 34
-0.277344 -0.117188 0.019837 28 17 23
-0.273438 -0.117188 -0.016064 96 71 77
-0.269531 -0.117188 -0.031983 160 122 119
-0.265625 -0.117188 -0.043573 191 147 129
-0.261719 -0.117188 -0.050519 201 150 125
-0.257812 -0.117188 -0.056467 200 143 118
-0.253906 -0.117188 -0.061568 201 140 117
-0.250000 -0.117188 -0.067227 205 140 117
-0.246094 -0.117188 -0.071981 210 143 120
-0.242188 -0.117188 -0.076683 214 147 122
-0.238281 -0.117188 -0.082132 216 147 121
-0.234375 -0.117188 -0.087375 218 147 120
-0.230469 -0.117188 -0.093240 218 144 117
-0.226562 -0.117188 -0.098894 218 142 115
-0.222656 -0.117188 -0.104715 219 142 114
-0.218750 -0.117188 -0.110193 221 144 114
-0.214844 -0.117188 -0.115276 223 146 115
-0.210938 -0.117188 -0.119708 225 148 115
-0.207031 -0.117188 -0.123683 226 147 113
-0.203125 -0.117188 -0.127667 228 150 116
-0.199219 -0.117188 -0.130901 227 148 115
-0.195312 -0.117188 -0.133928 223 139 110
-0.191406 -0.117188 -0.136893 220 138 110
-0.187500 -0.117188 -0.139562 214 134 107
-0.183594 -0.117188 -0.142525 203 126 100
-0.179688 -0.117188 -0.145625 178 104 83
-0.175781 -0.117188 -0.148285 153 82 64
-0.171875 -0.117188 -0.150549 136 69 61
-0.167969 -0.117188 -0.152296 99 63 69
-0.164062 -0.117188 -0.153687 74 45 57
-0.160156 -0.117188 -0.155098 71 33 48
-0.156250 -0.117188 -0.156142 78 31 49
-0.152344 -0.117188 -0.157164 82 30 52
-0.148438 -0.117188 -0.157872 84 30 53
-0.144531 -0.117188 -0.158454 84 32 54
-0.140625 -0.117188 -0.159058 82 33 54
-0.136719 -0.117188 -0.159233 79 34 55
-0.132812 -0.117188 -0.159385 78 35 55
-0.128906 -0.117188 -0.159352 80 33 53
-0.125000 -0.117188 -0.159227 79 32 52
-0.121094 -0.117188 -0.158969 76 30 50
-0.117188 -0.117188 -0.158589 75 29 49
-0.113281 -0.117188 -0.158212 74 28 48
-0.109375 -0.117188 -0.157825 73 27 47
-0.105469 -0.117188 -0.157608 72 28 47
-0.101562 -0.117188 -0.157430 72 28 47
-0.097656 -0.117188 -0.157353 72 28 47
-0.093750 -0.117188 -0.157253 72 28 47
-0.089844 -0.117188 -0.157040 71 29 47
-0.085938 -0.117188 -0.156765 71 29 47
-0.082031 -0.117188 -0.156501 71 29 47
-0.078125 -0.117188 -0.156256 71 29 47
-0.074219 -0.117188 -0.156002 69 29 47
-0.070312 -0.117188 -0.155769 69 29 47
-0.066406 -0.117188 -0.155564 71 27 46
-0.062500 -0.117188 -0.155356 71 27 46
-0.058594 -0.117188 -0.155201 71 27 46
-0.054688 -0.117188 -0.155041 71 27 46
-0.050781 -0.117188 -0.154894 71 27 46
-0.046875 -0.117188 -0.154662 71 27 46
-0.042969 -0.117188 -0.154371 71 27 46
-0.039062 -0.117188 -0.154148 71 27 46
-0.035156 -0.117188 -0.153571 72 28 47
-0.031250 -0.117188 -0.153148 72 28 47
-0.027344 -0.117188 -0.152472 72 28 47
-0.023438 -0.117188 -0.151735 72 28 47
-0.019531 -0.117188 -0.150822 73 29 48
-0.015625 -0.117188 -0.150188 73 29 48
-0.011719 -0.117188 -0.149315 73 29 48
-0.007812 -0.117188 -0.148674 74 30 49
-0.003906 -0.117188 -0.148052 65 41 49
0.000000 -0.117188 -0.147665 63 37 45
0.003906 -0.117188 -0.147119 51 17 27
0.007812 -0.117188 -0.146355 89 31 45
0.011719 -0.117188 -0.145566 129 70 82
0.015625 -0.117188 -0.145020 124 92 101
0.019531 -0.117188 -0.144269 108 88 94
0.023438 -0.117188 -0.143445 89 65 64
0.027344 -0.117188 -0.142681 70 50 42
0.031250 -0.117188 -0.141581 65 48 41
0.035156 -0.117188 -0.140532 69 54 44
0.039062 -0.117188 -0.140681 97 75 58
0.042969 -0.117188 -0.139420 131 96 76
0.046875 -0.117188 -0.138016 154 107 81
0.050781 -0.117188 -0.137102 183 127 92
0.054688 -0.117188 -0.136085 200 142 101
0.058594 -0.117188 -0.135501 208 149 106
0.062500 -0.117188 -0.134583 213 156 112
0.066406 -0.117188 -0.133425 215 159 115
0.070312 -0.117188 -0.131985 216 162 119
0.074219 -0.117188 -0.130095 215 162 120
0.078125 -0.117188 -0.128111 212 160 119
0.082031 -0.117188 -0.125963 208 155 116
0.085938 -0.117188 -0.123840 202 149 112
0.089844 -0.117188 -0.121668 198 150 113
0.093750 -0.117188 -0.119302 192 149 113
0.097656 -0.117188 -0.117152 175 137 107
0.101562 -0.117188 -0.114337 152 123 104
0.105469 -0.117188 -0.111486 128 110 103
0.109375 -0.117188 -0.107969 107 100 95
0.113281 -0.117188 -0.104854 99 96 95
0.117188 -0.117188 -0.101096 130 125 125
0.121094 -0.117188 -0.097858 155 148 149
0.125000 -0.117188 -0.094728 143 134 136
0.128906 -0.117188 -0.090874 124 114 116
0.132812 -0.117188 -0.086090 118 106 108
0.136719 -0.117188 -0.081828 120 111 111
0.140625 -0.117188 -0.077214 129 123 123
0.144531 -0.117188 -0.072710 143 139 139
0.148438 -0.117188 -0.067620 164 161 161
0.152344 -0.117188 -0.060683 188 185 185
0.156250 -0.117188 -0.052626 219 216 216
0.160156 -0.117188 -0.044182 239 234 235
-0.281250 -0.121094 0.025415 47 38 43
-0.277344 -0.121094 0.010985 43 23 32
-0.273438 -0.121094 -0.027190 65 47 48
-0.269531 -0.121094 -0.040127 137 104 103
-0.265625 -0.121094 -0.049013 190 146 132
-0.261719 -0.121094 -0.056135 203 153 128
-0.257812 -0.121094 -0.061169 201 145 120
-0.253906 -0.121094 -0.065721 201 141 118
-0.250000 -0.121094 -0.070535 204 140 118
-0.246094 -0.121094 -0.074888 208 142 119
-0.242188 -0.121094 -0.079209 213 145 121
-0.238281 -0.121094 -0.084148 215 145 121
-0.234375 -0.121094 -0.089113 217 146 120
-0.230469 -0.121094 -0.094708 217 144 118
-0.226562 -0.121094 -0.100424 217 142 115
-0.222656 -0.121094 -0.106090 218 141 114
-0.218750 -0.121094 -0.111495 219 141 113
-0.214844 -0.121094 -0.116267 221 143 113
-0.210938 -0.121094 -0.120761 223 144 112
-0.207031 -0.121094 -0.124895 224 144 111
-0.203125 -0.121094 -0.128801 227 148 114
-0.199219 -0.121094 -0.132205 227 148 114
-0.195312 -0.121094 -0.135186 225 140 110
-0.191406 -0.121094 -0.138273 223 140 111
-0.187500 -0.121094 -0.140991 219 139 113
-0.183594 -0.121094 -0.143979 214 137 110
-0.179688 -0.121094 -0.146720 200 122 96
-0.175781 -0.121094 -0.149198 182 107 83
-0.171875 -0.121094 -0.151582 158 84 66
-0.167969 -0.121094 -0.153551 114 60 58
-0.164062 -0.121094 -0.154909 73 41 52
-0.160156 -0.121094 -0.156207 72 33 48
-0.156250 -0.121094 -0.157461 78 31 49
-0.152344 -0.121094 -0.158306 82 30 52
-0.148438 -0.121094 -0.159130 84 30 53
-0.144531 -0.121094 -0.159765 84 32 54
-0.140625 -0.121094 -0.160190 83 34 55
-0.136719 -0.121094 -0.160373 80 35 56
-0.132812 -0.121094 -0.160406 78 35 55
-0.128906 -0.121094 -0.160430 80 33 53
-0.125000 -0.121094 -0.160266 79 32 52
-0.121094 -0.121094 -0.159841 77 31 51
-0.117188 -0.121094 -0.159437 75 29 49
-0.113281 -0.121094 -0.159223 74 28 48
-0.109375 -0.121094 -0.158866 73 27 47
-0.105469 -0.121094 -0.158569 72 28 47
-0.101562 -0.121094 -0.158371 72 28 47
-0.097656 -0.121094 -0.158254 72 28 47
-0.093750 -0.121094 -0.158062 72 28 47
-0.089844 -0.121094 -0.157954 71 29 47
-0.085938 -0.121094 -0.157545 71 29 47
-0.082031 -0.121094 -0.157347 71 29 47
-0.078125 -0.121094 -0.157043 71 29 47
-0.074219 -0.121094 -0.156692 69 29 47
-0.070312 -0.121094 -0.156454 69 29 47
-0.066406 -0.121094 -0.156188 71 27 46
-0.062500 -0.121094 -0.155956 71 27 46
-0.058594 -0.121094 -0.155704 71 27 46
-0.054688 -0.121094 -0.155515 71 27 46
-0.050781 -0.121094 -0.155421 71 27 46
-0.046875 -0.121094 -0.155237 71 27 46
-0.042969 -0.121094 -0.155067 71 27 46
-0.039062 -0.121094 -0.154700 71 27 46
-0.035156 -0.121094 -0.154371 72 28 47
-0.031250 -0.121094 -0.153788 72 28 47
-0.027344 -0.121094 -0.153179 72 28 47
-0.023438 -0.121094 -0.152280 73 29 48
-0.019531 -0.121094 -0.151491 72 29 48
-0.015625 -0.121094 -0.150770 72 29 48
-0.011719 -0.121094 -0.149940 73 30 49
-0.007812 -0.121094 -0.149122 73 29 47
-0.003906 -0.121094 -0.148818 54 28 33
0.000000 -0.121094 -0.148283 53 27 34
0.003906 -0.121094 -0.147642 70 28 40
0.007812 -0.121094 -0.146820 170 69 88
0.011719 -0.121094 -0.145834 190 98 115
0.015625 -0.121094 -0.145078 109 55 78
0.019531 -0.121094 -0.144113 73 46 60
0.023438 -0.121094 -0.142839 71 51 49
0.027344 -0.121094 -0.142197 83 69 52
0.031250 -0.121094 -0.141379 112 99 79
0.035156 -0.121094 -0.140793 124 106 82
0.039062 -0.121094 -0.140329 144 114 81
0.042969 -0.121094 -0.138687 162 119 86
0.046875 -0.121094 -0.137224 171 119 86
0.050781 -0.121094 -0.136422 189 131 93
0.054688 -0.121094 -0.135681 202 143 100
0.058594 -0.121094 -0.134846 209 150 106
0.062500 -0.121094 -0.134126 214 156 112
0.066406 -0.121094 -0.132956 215 159 115
0.070312 -0.121094 -0.131476 214 159 117
0.074219 -0.121094 -0.129601 212 158 117
0.078125 -0.121094 -0.127869 209 155 116
0.082031 -0.121094 -0.125495 205 151 114
0.085938 -0.121094 -0.123219 199 147 111
0.089844 -0.121094 -0.121418 195 148 113
0.093750 -0.121094 -0.118918 186 146 113
0.097656 -0.121094 -0.116484 163 127 104
0.101562 -0.121094 -0.114122 129 108 96
0.105469 -0.121094 -0.110602 87 83 81
0.109375 -0.121094 -0.107454 72 70 70
0.113281 -0.121094 -0.104043 100 94 96
0.117188 -0.121094 -0.100474 133 126 129
0.121094 -0.121094 -0.097389 142 134 136
0.125000 -0.121094 -0.094389 133 122 125
0.128906 -0.121094 -0.090422 121 110 112
0.132812 -0.121094 -0.085563 119 107 109
0.136719 -0.121094 -0.081103 127 117 118
0.140625 -0.121094 -0.076498 137 132 131
0.144531 -0.121094 -0.071948 152 149 148
0.148438 -0.121094 -0.066737 170 168 167
0.152344 -0.121094 -0.060150 188 186 186
0.156250 -0.121094 -0.052081 218 215 216
0.160156 -0.121094 -0.043098 240 235 237
-0.281250 -0.125000 0.025279 57 44 51
-0.277344 -0.125000 -0.011324 70 36 51
-0.273438 -0.125000 -0.035414 62 31 40
-0.269531 -0.125000 -0.048469 115 82 85
-0.265625 -0.125000 -0.055641 192 150 137
-0.261719 -0.125000 -0.061887 204 157 132
-0.257812 -0.125000 -0.066059 200 145 120
-0.253906 -0.125000 -0.069905 199 140 117
-0.250000 -0.125000 -0.074195 202 139 117
-0.246094 -0.125000 -0.077775 206 140 118
-0.242188 -0.125000 -0.081802 211 143 121
-0.238281 -0.125000 -0.086153 214 145 121
-0.234375 -0.125000 -0.091031 217 146 121
-0.230469 -0.125000 -0.096316 217 144 119
-0.226562 -0.125000 -0.101616 218 143 117
-0.222656 -0.125000 -0.107398 218 141 114
-0.218750 -0.125000 -0.112651 218 140 113
-0.214844 -0.125000 -0.117431 220 141 112
-0.210938 -0.125000 -0.121749 222 142 111
-0.207031 -0.125000 -0.125773 223 142 109
-0.203125 -0.125000 -0.129681 226 146 112
-0.199219 -0.125000 -0.132959 227 147 112
-0.195312 -0.125000 -0.136248 225 142 109
-0.191406 -0.125000 -0.139251 225 143 112
-0.187500 -0.125000 -0.142065 224 145 117
-0.183594 -0.125000 -0.145100 221 145 117
-0.179688 -0.125000 -0.147511 212 133 107
-0.175781 -0.125000 -0.149866 199 121 95
-0.171875 -0.125000 -0.152532 175 99 73
-0.167969 -0.125000 -0.154412 141 70 52
-0.164062 -0.125000 -0.156076 88 44 52
-0.160156 -0.125000 -0.157404 73 33 48
-0.156250 -0.125000 -0.158714 79 31 49
-0.152344 -0.125000 -0.159669 82 30 52
-0.148438 -0.125000 -0.160363 84 30 53
-0.144531 -0.125000 -0.160907 84 32 54
-0.140625 -0.125000 -0.161331 83 34 55
-0.136719 -0.125000 -0.161608 80 35 56
-0.132812 -0.125000 -0.161667 79 36 56
-0.128906 -0.125000 -0.161577 80 33 53
-0.125000 -0.125000 -0.161309 80 32 52
-0.121094 -0.125000 -0.161064 77 31 51
-0.117188 -0.125000 -0.160568 75 29 49
-0.113281 -0.125000 -0.160076 73 27 47
-0.109375 -0.125000 -0.159679 73 27 47
-0.105469 -0.125000 -0.159371 71 27 46
-0.101562 -0.125000 -0.159298 71 27 46
-0.097656 -0.125000 -0.159031 72 28 47
-0.093750 -0.125000 -0.158858 72 28 47
-0.089844 -0.125000 -0.158545 71 29 47
-0.085938 -0.125000 -0.158303 71 29 47
-0.082031 -0.125000 -0.158002 71 29 47
-0.078125 -0.125000 -0.157667 71 29 47
-0.074219 -0.125000 -0.157309 69 29 47
-0.070312 -0.125000 -0.156989 69 29 47
-0.066406 -0.125000 -0.156740 71 27 46
-0.062500 -0.125000 -0.156528 71 27 46
-0.058594 -0.125000 -0.156348 71 27 46
-0.054688 -0.125000 -0.156145 71 27 46
-0.050781 -0.125000 -0.155992 71 27 46
-0.046875 -0.125000 -0.155781 71 27 46
-0.042969 -0.125000 -0.155499 71 27 46
-0.039062 -0.125000 -0.155241 71 27 46
-0.035156 -0.125000 -0.154780 72 28 47
-0.031250 -0.125000 -0.154279 72 28 47
-0.027344 -0.125000 -0.153604 72 28 47
-0.023438 -0.125000 -0.152784 72 29 48
-0.019531 -0.125000 -0.151887 72 29 48
-0.015625 -0.125000 -0.151151 72 29 48
-0.011719 -0.125000 -0.150346 71 27 45
-0.007812 -0.125000 -0.149766 67 22 38
-0.003906 -0.125000 -0.149404 58 29 35
0.000000 -0.125000 -0.148826 48 25 31
0.003906 -0.125000 -0.148012 79 33 47
0.007812 -0.125000 -0.147078 188 100 114
0.011719 -0.125000 -0.146111 217 140 153
0.015625 -0.125000 -0.145227 195 131 153
0.019531 -0.125000 -0.144271 160 122 133
0.023438 -0.125000 -0.142916 119 94 92
0.027344 -0.125000 -0.142158 120 108 93
0.031250 -0.125000 -0.141416 141 131 110
0.035156 -0.125000 -0.140481 153 129 102
0.039062 -0.125000 -0.139776 180 140 97
0.042969 -0.125000 -0.138369 194 144 98
0.046875 -0.125000 -0.136914 196 141 102
0.050781 -0.125000 -0.136107 198 140 102
0.054688 -0.125000 -0.135114 204 144 102
0.058594 -0.125000 -0.134306 209 150 107
0.062500 -0.125000 -0.133457 213 155 111
0.066406 -0.125000 -0.132173 215 159 115
0.070312 -0.125000 -0.130666 214 159 117
0.074219 -0.125000 -0.128932 213 158 117
0.078125 -0.125000 -0.127349 209 155 116
0.082031 -0.125000 -0.125325 204 151 114
0.085938 -0.125000 -0.123091 197 145 111
0.089844 -0.125000 -0.121189 191 148 112
0.093750 -0.125000 -0.118796 181 147 115
0.097656 -0.125000 -0.116294 152 125 107
0.101562 -0.125000 -0.113719 111 104 94
0.105469 -0.125000 -0.109899 63 74 69
0.109375 -0.125000 -0.106606 61 65 65
0.113281 -0.125000 -0.103346 101 96 98
0.117188 -0.125000 -0.099840 124 116 120
0.121094 -0.125000 -0.096823 123 114 117
0.125000 -0.125000 -0.093831 123 112 115
0.128906 -0.125000 -0.089733 125 113 115
0.132812 -0.125000 -0.084929 129 118 119
0.136719 -0.125000 -0.080286 139 131 131
0.140625 -0.125000 -0.075647 148 143 142
0.144531 -0.125000 -0.070985 159 156 155
0.148438 -0.125000 -0.065486 172 170 169
0.152344 -0.125000 -0.059030 186 184 184
0.156250 -0.125000 -0.051119 215 210 212
0.160156 -0.125000 -0.042557 235 230 232
-0.285156 -0.128906 0.029325 83 77 79
-0.281250 -0.128906 0.014933 83 61 69
-0.277344 -0.128906 -0.030886 85 48 62
-0.273438 -0.128906 -0.044834 72 35 49
-0.269531 -0.128906 -0.055263 73 42 52
-0.265625 -0.128906 -0.062066 174 126 120
-0.261719 -0.128906 -0.067181 196 145 124
-0.257812 -0.128906 -0.070798 196 140 117
-0.253906 -0.128906 -0.074027 198 138 116
-0.250000 -0.128906 -0.077645 200 137 116
-0.246094 -0.128906 -0.080929 205 139 118
-0.242188 -0.128906 -0.084411 211 143 120
-0.238281 -0.128906 -0.088564 214 145 121
-0.234375 -0.128906 -0.093088 217 146 122
-0.230469 -0.128906 -0.098029 218 145 120
-0.226562 -0.128906 -0.103385 218 144 118
-0.222656 -0.128906 -0.108688 218 142 116
-0.218750 -0.128906 -0.113918 218 140 113
-0.214844 -0.128906 -0.118484 218 139 111
-0.210938 -0.128906 -0.122856 220 140 109
-0.207031 -0.128906 -0.126855 220 138 107
-0.203125 -0.128906 -0.130633 224 142 109
-0.199219 -0.128906 -0.134075 226 145 110
-0.195312 -0.128906 -0.137371 225 142 109
-0.191406 -0.128906 -0.140210 227 145 113
-0.187500 -0.128906 -0.143042 226 149 118
-0.183594 -0.128906 -0.145992 225 149 119
-0.179688 -0.128906 -0.148762 217 136 112
-0.175781 -0.128906 -0.151203 207 125 102
-0.171875 -0.128906 -0.153387 190 109 82
-0.167969 -0.128906 -0.155431 169 90 61
-0.164062 -0.128906 -0.157160 142 62 55
-0.160156 -0.128906 -0.158435 93 33 49
-0.156250 -0.128906 -0.159731 79 28 47
-0.152344 -0.128906 -0.160770 73 31 47
-0.148438 -0.128906 -0.161649 70 35 49
-0.144531 -0.128906 -0.162190 71 38 51
-0.140625 -0.128906 -0.162591 78 37 53
-0.136719 -0.128906 -0.162819 85 34 53
-0.132812 -0.128906 -0.162835 88 29 51
-0.128906 -0.128906 -0.162724 75 32 54
-0.125000 -0.128906 -0.162466 76 31 54
-0.121094 -0.128906 -0.162176 75 30 53
-0.117188 -0.128906 -0.161557 76 30 53
-0.113281 -0.128906 -0.161187 76 30 53
-0.109375 -0.128906 -0.160783 76 30 53
-0.105469 -0.128906 -0.160398 77 28 52
-0.101562 -0.128906 -0.160127 75 29 52
-0.097656 -0.128906 -0.160010 73 27 50
-0.093750 -0.128906 -0.159573 72 27 50
-0.089844 -0.128906 -0.159398 71 28 50
-0.085938 -0.128906 -0.159060 69 29 50
-0.082031 -0.128906 -0.158674 68 29 50
-0.078125 -0.128906 -0.158307 66 30 50
-0.074219 -0.128906 -0.158001 65 31 50
-0.070312 -0.128906 -0.157678 65 31 50
-0.066406 -0.128906 -0.157391 73 24 40
-0.062500 -0.128906 -0.157160 72 23 39
-0.058594 -0.128906 -0.156944 84 36 52
-0.054688 -0.128906 -0.156776 70 25 40
-0.050781 -0.128906 -0.156451 67 24 38
-0.046875 -0.128906 -0.156300 77 35 49
-0.042969 -0.128906 -0.156143 65 26 39
-0.039062 -0.128906 -0.155645 68 31 43
-0.035156 -0.128906 -0.155299 66 33 44
-0.031250 -0.128906 -0.154753 63 32 42
-0.027344 -0.128906 -0.154116 69 41 50
-0.023438 -0.128906 -0.153291 67 41 50
-0.019531 -0.128906 -0.152441 58 32 41
-0.015625 -0.128906 -0.151574 68 38 47
-0.011719 -0.128906 -0.150950 57 20 29
-0.007812 -0.128906 -0.150499 76 42 49
-0.003906 -0.128906 -0.149851 56 28 35
0.000000 -0.128906 -0.149310 73 33 43
0.003906 -0.128906 -0.148480 144 69 90
0.007812 -0.128906 -0.147285 195 117 134
0.011719 -0.128906 -0.146115 195 125 141
0.015625 -0.128906 -0.145192 191 138 154
0.019531 -0.128906 -0.144211 190 154 161
0.023438 -0.128906 -0.143081 190 155 156
0.027344 -0.128906 -0.142297 200 171 164
0.031250 -0.128906 -0.142127 186 159 147
0.035156 -0.128906 -0.140362 174 139 116
0.039062 -0.128906 -0.139021 181 134 92
0.042969 -0.128906 -0.137809 186 129 84
0.046875 -0.128906 -0.136493 200 142 102
0.050781 -0.128906 -0.135602 208 148 108
0.054688 -0.128906 -0.134613 212 153 109
0.058594 -0.128906 -0.133615 216 158 113
0.062500 -0.128906 -0.132629 214 157 114
0.066406 -0.128906 -0.131642 213 157 115
0.070312 -0.128906 -0.130468 214 158 116
0.074219 -0.128906 -0.128722 213 158 117
0.078125 -0.128906 -0.126858 209 155 115
0.082031 -0.128906 -0.125043 204 152 113
0.085938 -0.128906 -0.122961 193 144 109
0.089844 -0.128906 -0.121025 184 144 112
0.093750 -0.128906 -0.119063 169 141 117
0.097656 -0.128906 -0.116210 128 110 100
0.101562 -0.128906 -0.112675 83 88 79
0.105469 -0.128906 -0.109470 58 75 66
0.109375 -0.128906 -0.105861 73 78 75
0.113281 -0.128906 -0.102675 102 100 100
0.117188 -0.128906 -0.099396 115 108 110
0.121094 -0.128906 -0.096377 111 101 105
0.125000 -0.128906 -0.093243 119 107 110
0.128906 -0.128906 -0.089172 133 121 123
0.132812 -0.128906 -0.084220 143 133 135
0.136719 -0.128906 -0.079505 156 148 148
0.140625 -0.128906 -0.074884 161 157 156
0.144531 -0.128906 -0.069812 168 166 165
0.148438 -0.128906 -0.064459 178 176 175
0.152344 -0.128906 -0.057841 190 187 187
0.156250 -0.128906 -0.049539 217 212 213
0.160156 -0.128906 -0.041306 236 229 232
-0.285156 -0.132812 0.026840 79 74 76
-0.281250 -0.132812 -0.006754 95 70 78
-0.277344 -0.132812 -0.040660 91 51 67
-0.273438 -0.132812 -0.054284 85 40 57
-0.269531 -0.132812 -0.061659 71 35 47
-0.265625 -0.132812 -0.068504 150 105 97
-0.261719 -0.132812 -0.072352 185 134 116
-0.257812 -0.132812 -0.075516 194 138 118
-0.253906 -0.132812 -0.078040 199 139 118
-0.250000 -0.132812 -0.081283 200 137 116
-0.246094 -0.132812 -0.083969 205 138 117
-0.242188 -0.132812 -0.087253 210 142 120
-0.238281 -0.132812 -0.090873 214 145 122
-0.234375 -0.132812 -0.095010 217 147 123
-0.230469 -0.132812 -0.099596 218 147 122
-0.226562 -0.132812 -0.104782 219 145 120
-0.222656 -0.132812 -0.110057 219 143 117
-0.218750 -0.132812 -0.114981 218 140 114
-0.214844 -0.132812 -0.119811 217 138 110
-0.210938 -0.132812 -0.123902 218 137 107
-0.207031 -0.132812 -0.127772 218 135 104
-0.203125 -0.132812 -0.131641 221 138 105
-0.199219 -0.132812 -0.135090 224 141 107
-0.195312 -0.132812 -0.138166 224 141 107
-0.191406 -0.132812 -0.141384 226 144 111
-0.187500 -0.132812 -0.144335 226 148 115
-0.183594 -0.132812 -0.147124 226 149 117
-0.179688 -0.132812 -0.149565 220 139 113
-0.175781 -0.132812 -0.151902 213 130 107
-0.171875 -0.132812 -0.154152 202 120 92
-0.167969 -0.132812 -0.156100 187 112 78
-0.164062 -0.132812 -0.158016 182 101 75
-0.160156 -0.132812 -0.159454 152 65 62
-0.156250 -0.132812 -0.160549 93 31 48
-0.152344 -0.132812 -0.161664 76 31 47
-0.148438 -0.132812 -0.162564 71 35 49
-0.144531 -0.132812 -0.163085 71 38 51
-0.140625 -0.132812 -0.163658 78 36 52
-0.136719 -0.132812 -0.163821 85 33 52
-0.132812 -0.132812 -0.163934 89 29 51
-0.128906 -0.132812 -0.163806 75 32 54
-0.125000 -0.132812 -0.163531 76 31 54
-0.121094 -0.132812 -0.163281 75 30 53
-0.117188 -0.132812 -0.162724 76 30 53
-0.113281 -0.132812 -0.162218 76 30 53
-0.109375 -0.132812 -0.161756 78 29 53
-0.105469 -0.132812 -0.161363 77 28 52
-0.101562 -0.132812 -0.161099 77 28 52
-0.097656 -0.132812 -0.160747 73 27 50
-0.093750 -0.132812 -0.160463 72 27 50
-0.089844 -0.132812 -0.160138 71 28 50
-0.085938 -0.132812 -0.159711 69 29 50
-0.082031 -0.132812 -0.159320 68 29 50
-0.078125 -0.132812 -0.158923 66 30 50
-0.074219 -0.132812 -0.158527 65 31 50
-0.070312 -0.132812 -0.158210 65 31 50
-0.066406 -0.132812 -0.158009 77 28 44
-0.062500 -0.132812 -0.157725 97 49 65
-0.058594 -0.132812 -0.157516 57 9 25
-0.054688 -0.132812 -0.157200 73 28 43
-0.050781 -0.132812 -0.157031 89 46 60
-0.046875 -0.132812 -0.156780 58 16 30
-0.042969 -0.132812 -0.156546 70 31 44
-0.039062 -0.132812 -0.156139 69 35 46
-0.035156 -0.132812 -0.155664 70 37 48
-0.031250 -0.132812 -0.155039 56 28 37
-0.027344 -0.132812 -0.154482 66 39 48
-0.023438 -0.132812 -0.153766 46 20 28
-0.019531 -0.132812 -0.152901 67 32 41
-0.015625 -0.132812 -0.152156 82 40 49
-0.011719 -0.132812 -0.151626 71 38 43
-0.007812 -0.132812 -0.151069 67 36 41
-0.003906 -0.132812 -0.150574 90 44 54
0.000000 -0.132812 -0.149739 161 85 100
0.003906 -0.132812 -0.148952 216 146 159
0.007812 -0.132812 -0.147728 223 164 174
0.011719 -0.132812 -0.146620 205 151 161
0.015625 -0.132812 -0.145583 190 147 157
0.019531 -0.132812 -0.144765 189 155 158
0.023438 -0.132812 -0.143454 204 174 170
0.027344 -0.132812 -0.142498 220 191 184
0.031250 -0.132812 -0.142008 221 190 180
0.035156 -0.132812 -0.140398 219 190 166
0.039062 -0.132812 -0.138546 210 171 133
0.042969 -0.132812 -0.137257 200 150 108
0.046875 -0.132812 -0.136038 205 152 112
0.050781 -0.132812 -0.135181 215 156 116
0.054688 -0.132812 -0.133916 225 169 120
0.058594 -0.132812 -0.132927 225 170 121
0.062500 -0.132812 -0.131996 221 165 122
0.066406 -0.132812 -0.130819 215 160 119
0.070312 -0.132812 -0.129788 214 159 116
0.074219 -0.132812 -0.128066 213 159 116
0.078125 -0.132812 -0.126600 209 154 114
0.082031 -0.132812 -0.124775 203 152 113
0.085938 -0.132812 -0.122571 191 145 110
0.089844 -0.132812 -0.120933 177 142 116
0.093750 -0.132812 -0.118505 153 131 120
0.097656 -0.132812 -0.114904 92 87 87
0.101562 -0.132812 -0.111799 56 68 62
0.105469 -0.132812 -0.108922 72 84 76
0.109375 -0.132812 -0.105374 83 86 84
0.113281 -0.132812 -0.102178 89 88 88
0.117188 -0.132812 -0.098928 93 87 89
0.121094 -0.132812 -0.095948 94 84 87
0.125000 -0.132812 -0.092722 110 99 102
0.128906 -0.132812 -0.088693 135 125 127
0.132812 -0.132812 -0.083585 154 146 147
0.136719 -0.132812 -0.078829 168 162 161
0.140625 -0.132812 -0.073992 170 167 166
0.144531 -0.132812 -0.068968 174 173 171
0.148438 -0.132812 -0.063527 180 178 177
0.152344 -0.132812 -0.056888 189 185 186
0.156250 -0.132812 -0.048156 216 210 212
0.160156 -0.132812 -0.039871 235 228 231
0.164062 -0.132812 -0.008157 236 226 230
-0.285156 -0.136719 0.022172 71 66 68
-0.281250 -0.136719 -0.025523 100 73 82
-0.277344 -0.136719 -0.048810 92 52 68
-0.273438 -0.136719 -0.061445 88 42 59
-0.269531 -0.136719 -0.068043 80 36 52
-0.265625 -0.136719 -0.074241 116 80 70
-0.261719 -0.136719 -0.077252 166 119 104
-0.257812 -0.136719 -0.079871 187 132 115
-0.253906 -0.136719 -0.082032 198 139 117
-0.250000 -0.136719 -0.084664 200 136 115
-0.246094 -0.136719 -0.087213 204 137 116
-0.242188 -0.136719 -0.090022 209 141 119
-0.238281 -0.136719 -0.093320 214 145 121
-0.234375 -0.136719 -0.097279 218 148 124
-0.230469 -0.136719 -0.101677 219 148 124
-0.226562 -0.136719 -0.106475 220 148 122
-0.222656 -0.136719 -0.111513 220 146 120
-0.218750 -0.136719 -0.116381 219 143 116
-0.214844 -0.136719 -0.120666 217 139 111
-0.210938 -0.136719 -0.124917 217 138 108
-0.207031 -0.136719 -0.128740 216 134 104
-0.203125 -0.136719 -0.132547 219 136 104
-0.199219 -0.136719 -0.135927 221 138 105
-0.195312 -0.136719 -0.139084 223 138 105
-0.191406 -0.136719 -0.142244 224 140 108
-0.187500 -0.136719 -0.145079 224 144 111
-0.183594 -0.136719 -0.147788 226 147 114
-0.179688 -0.136719 -0.150249 223 141 113
-0.175781 -0.136719 -0.152891 220 136 110
-0.171875 -0.136719 -0.155094 213 130 100
-0.167969 -0.136719 -0.156912 201 126 90
-0.164062 -0.136719 -0.158916 194 119 86
-0.160156 -0.136719 -0.160326 181 95 74
-0.156250 -0.136719 -0.161543 129 43 52
-0.152344 -0.136719 -0.162641 86 31 47
-0.148438 -0.136719 -0.163549 74 34 48
-0.144531 -0.136719 -0.164156 72 38 51
-0.140625 -0.136719 -0.164786 78 36 52
-0.136719 -0.136719 -0.165045 84 32 51
-0.132812 -0.136719 -0.165090 87 27 49
-0.128906 -0.136719 -0.165116 75 32 52
-0.125000 -0.136719 -0.164848 76 32 52
-0.121094 -0.136719 -0.164442 76 32 52
-0.117188 -0.136719 -0.163832 76 30 51
-0.113281 -0.136719 -0.163411 76 30 51
-0.109375 -0.136719 -0.162783 77 28 50
-0.105469 -0.136719 -0.162477 77 28 50
-0.101562 -0.136719 -0.161921 77 28 50
-0.097656 -0.136719 -0.161595 75 26 48
-0.093750 -0.136719 -0.161217 73 27 48
-0.089844 -0.136719 -0.160760 72 28 48
-0.085938 -0.136719 -0.160370 71 28 48
-0.082031 -0.136719 -0.159927 69 29 48
-0.078125 -0.136719 -0.159520 68 30 48
-0.074219 -0.136719 -0.159250 66 31 48
-0.070312 -0.136719 -0.158807 66 31 48
-0.066406 -0.136719 -0.158553 74 26 42
-0.062500 -0.136719 -0.158349 61 13 29
-0.058594 -0.136719 -0.158037 83 38 53
-0.054688 -0.136719 -0.157794 69 26 40
-0.050781 -0.136719 -0.157481 76 34 48
-0.046875 -0.136719 -0.157295 84 45 58
-0.042969 -0.136719 -0.156937 48 14 25
-0.039062 -0.136719 -0.156523 77 44 55
-0.035156 -0.136719 -0.156035 63 35 44
-0.031250 -0.136719 -0.155515 84 56 66
-0.027344 -0.136719 -0.154784 58 28 37
-0.023438 -0.136719 -0.154087 64 27 37
-0.019531 -0.136719 -0.153430 115 67 77
-0.015625 -0.136719 -0.152844 82 42 49
-0.011719 -0.136719 -0.152002 59 29 37
-0.007812 -0.136719 -0.151453 87 42 53
-0.003906 -0.136719 -0.150903 162 83 97
0.000000 -0.136719 -0.150253 213 139 150
0.003906 -0.136719 -0.149172 230 178 182
0.007812 -0.136719 -0.148091 230 191 191
0.011719 -0.136719 -0.147000 226 199 196
0.015625 -0.136719 -0.145848 222 201 197
0.019531 -0.136719 -0.145245 209 189 181
0.023438 -0.136719 -0.144258 196 179 166
0.027344 -0.136719 -0.142931 200 172 161
0.031250 -0.136719 -0.141825 213 174 163
0.035156 -0.136719 -0.140087 228 193 176
0.039062 -0.136719 -0.138395 234 197 176
0.042969 -0.136719 -0.137248 234 192 168
0.046875 -0.136719 -0.135831 228 178 154
0.050781 -0.136719 -0.134620 226 171 139
0.054688 -0.136719 -0.133551 228 175 126
0.058594 -0.136719 -0.132399 224 169 116
0.062500 -0.136719 -0.131437 224 173 127
0.066406 -0.136719 -0.130277 223 174 130
0.070312 -0.136719 -0.129143 221 172 125
0.074219 -0.136719 -0.127694 220 169 123
0.078125 -0.136719 -0.126225 211 159 117
0.082031 -0.136719 -0.124732 202 153 116
0.085938 -0.136719 -0.122987 187 145 116
0.089844 -0.136719 -0.120686 167 136 122
0.093750 -0.136719 -0.117210 133 123 121
0.097656 -0.136719 -0.114304 70 80 81
0.101562 -0.136719 -0.111240 67 79 73
0.105469 -0.136719 -0.108171 100 107 102
0.109375 -0.136719 -0.104954 95 96 95
0.113281 -0.136719 -0.101873 81 80 80
0.117188 -0.136719 -0.098549 79 73 75
0.121094 -0.136719 -0.095603 84 76 78
0.125000 -0.136719 -0.092243 108 98 101
0.128906 -0.136719 -0.088124 140 130 132
0.132812 -0.136719 -0.083048 163 156 156
0.136719 -0.136719 -0.078222 176 171 170
0.140625 -0.136719 -0.073342 176 174 172
0.144531 -0.136719 -0.068089 177 176 174
0.148438 -0.136719 -0.062500 180 178 177
0.152344 -0.136719 -0.055788 188 184 185
0.156250 -0.136719 -0.047070 216 209 212
0.160156 -0.136719 -0.038305 236 228 232
0.164062 -0.136719 -0.013520 238 227 232
-0.285156 -0.140625 0.017644 88 81 83
-0.281250 -0.140625 -0.039573 107 78 88
-0.277344 -0.140625 -0.057607 92 50 67
-0.273438 -0.140625 -0.067637 89 42 60
-0.269531 -0.140625 -0.074102 84 37 55
-0.265625 -0.140625 -0.079557 81 46 47
-0.261719 -0.140625 -0.081956 143 98 90
-0.257812 -0.140625 -0.084067 184 133 118
-0.253906 -0.140625 -0.085924 199 141 119
-0.250000 -0.140625 -0.087764 201 138 115
-0.246094 -0.140625 -0.090173 205 138 116
-0.242188 -0.140625 -0.092599 209 141 119
-0.238281 -0.140625 -0.095772 214 145 121
-0.234375 -0.140625 -0.099152 218 149 124
-0.230469 -0.140625 -0.103404 219 149 124
-0.226562 -0.140625 -0.108039 220 149 123
-0.222656 -0.140625 -0.112748 221 148 121
-0.218750 -0.140625 -0.117222 220 145 118
-0.214844 -0.140625 -0.121882 218 141 114
-0.210938 -0.140625 -0.125712 218 139 110
-0.207031 -0.140625 -0.129693 216 135 105
-0.203125 -0.140625 -0.133311 217 134 104
-0.199219 -0.140625 -0.136680 219 136 103
-0.195312 -0.140625 -0.139896 221 137 104
-0.191406 -0.140625 -0.143050 222 138 107
-0.187500 -0.140625 -0.145800 222 142 108
-0.183594 -0.140625 -0.148689 225 146 111
-0.179688 -0.140625 -0.151145 224 141 111
-0.175781 -0.140625 -0.153618 222 138 110
-0.171875 -0.140625 -0.155443 218 136 106
-0.167969 -0.140625 -0.157441 211 136 100
-0.164062 -0.140625 -0.159336 200 125 93
-0.160156 -0.140625 -0.161204 185 106 82
-0.156250 -0.140625 -0.162218 166 73 69
-0.152344 -0.140625 -0.163387 107 37 53
-0.148438 -0.140625 -0.164286 78 34 49
-0.144531 -0.140625 -0.165050 73 38 51
-0.140625 -0.140625 -0.165590 77 35 51
-0.136719 -0.140625 -0.165898 83 31 50
-0.132812 -0.140625 -0.165945 86 26 48
-0.128906 -0.140625 -0.165960 76 33 53
-0.125000 -0.140625 -0.165724 76 33 53
-0.121094 -0.140625 -0.165396 76 32 52
-0.117188 -0.140625 -0.164924 76 30 51
-0.113281 -0.140625 -0.164289 76 30 51
-0.109375 -0.140625 -0.163741 77 28 50
-0.105469 -0.140625 -0.163305 76 27 49
-0.101562 -0.140625 -0.162811 76 27 49
-0.097656 -0.140625 -0.162315 75 26 48
-0.093750 -0.140625 -0.161932 73 27 48
-0.089844 -0.140625 -0.161451 73 27 48
-0.085938 -0.140625 -0.160933 72 28 48
-0.082031 -0.140625 -0.160541 71 28 48
-0.078125 -0.140625 -0.160039 69 29 48
-0.074219 -0.140625 -0.159633 68 30 48
-0.070312 -0.140625 -0.159351 68 30 48
-0.066406 -0.140625 -0.159088 76 31 46
-0.062500 -0.140625 -0.158888 80 35 50
-0.058594 -0.140625 -0.158451 62 19 33
-0.054688 -0.140625 -0.158251 64 22 36
-0.050781 -0.140625 -0.158004 65 26 39
-0.046875 -0.140625 -0.157668 68 31 43
-0.042969 -0.140625 -0.157315 79 46 57
-0.039062 -0.140625 -0.156818 63 34 43
-0.035156 -0.140625 -0.156441 63 33 42
-0.031250 -0.140625 -0.155840 55 23 33
-0.027344 -0.140625 -0.155197 103 58 70
-0.023438 -0.140625 -0.154585 108 59 71
-0.019531 -0.140625 -0.154042 93 48 56
-0.015625 -0.140625 -0.153320 77 38 46
-0.011719 -0.140625 -0.152598 90 41 55
-0.007812 -0.140625 -0.151891 157 79 96
-0.003906 -0.140625 -0.151340 210 131 142
0.000000 -0.140625 -0.150561 227 167 173
0.003906 -0.140625 -0.149730 230 186 187
0.007812 -0.140625 -0.148735 227 194 191
0.011719 -0.140625 -0.147730 227 206 199
0.015625 -0.140625 -0.146366 226 211 202
0.019531 -0.140625 -0.145170 216 201 190
0.023438 -0.140625 -0.144535 205 189 175
0.027344 -0.140625 -0.143112 199 171 158
0.031250 -0.140625 -0.141573 199 155 145
0.035156 -0.140625 -0.139928 213 166 150
0.039062 -0.140625 -0.138315 226 179 160
0.042969 -0.140625 -0.136822 234 185 168
0.046875 -0.140625 -0.135448 236 186 171
0.050781 -0.140625 -0.134276 235 188 163
0.054688 -0.140625 -0.132967 231 182 142
0.058594 -0.140625 -0.131802 224 174 129
0.062500 -0.140625 -0.130784 223 177 132
0.066406 -0.140625 -0.129670 225 180 133
0.070312 -0.140625 -0.128738 228 183 130
0.074219 -0.140625 -0.127493 225 176 126
0.078125 -0.140625 -0.125929 216 164 124
0.082031 -0.140625 -0.124489 203 156 123
0.085938 -0.140625 -0.123128 181 142 122
0.089844 -0.140625 -0.119147 143 120 117
0.093750 -0.140625 -0.116551 97 102 98
0.097656 -0.140625 -0.113930 65 82 75
0.101562 -0.140625 -0.110755 95 103 98
0.105469 -0.140625 -0.107682 116 119 116
0.109375 -0.140625 -0.104763 97 97 97
0.113281 -0.140625 -0.101684 76 74 74
0.117188 -0.140625 -0.098434 73 68 69
0.121094 -0.140625 -0.095284 84 76 78
0.125000 -0.140625 -0.091997 113 104 106
0.128906 -0.140625 -0.087900 146 137 139
0.132812 -0.140625 -0.082687 168 162 162
0.136719 -0.140625 -0.077841 179 175 175
0.140625 -0.140625 -0.072856 178 176 175
0.144531 -0.140625 -0.067617 179 178 176
0.148438 -0.140625 -0.061823 180 179 177
0.152344 -0.140625 -0.055011 190 186 186
0.156250 -0.140625 -0.046218 219 212 214
0.160156 -0.140625 -0.036985 238 230 234
0.164062 -0.140625 -0.017051 240 229 234
-0.285156 -0.144531 0.014259 149 132 137
-0.281250 -0.144531 -0.051658 113 81 92
-0.277344 -0.144531 -0.066404 91 48 65
-0.273438 -0.144531 -0.073615 89 42 60
-0.269531 -0.144531 -0.079861 87 39 58
-0.265625 -0.144531 -0.084686 77 37 47
-0.261719 -0.144531 -0.086634 132 91 84
-0.257812 -0.144531 -0.088048 190 139 126
-0.253906 -0.144531 -0.089496 201 144 121
-0.250000 -0.144531 -0.091276 202 138 117
-0.246094 -0.144531 -0.092886 206 139 118
-0.242188 -0.144531 -0.095333 209 141 119
-0.238281 -0.144531 -0.098208 213 144 120
-0.234375 -0.144531 -0.101464 217 148 123
-0.230469 -0.144531 -0.105176 219 149 124
-0.226562 -0.144531 -0.109459 220 150 123
-0.222656 -0.144531 -0.113995 222 151 123
-0.218750 -0.144531 -0.118427 221 148 121
-0.214844 -0.144531 -0.122547 219 144 116
-0.210938 -0.144531 -0.126504 218 142 112
-0.207031 -0.144531 -0.130410 216 138 108
-0.203125 -0.144531 -0.134110 217 136 105
-0.199219 -0.144531 -0.137521 218 136 104
-0.195312 -0.144531 -0.140692 219 136 105
-0.191406 -0.144531 -0.143734 219 136 106
-0.187500 -0.144531 -0.146748 220 138 106
-0.183594 -0.144531 -0.149465 223 143 108
-0.179688 -0.144531 -0.151770 222 138 107
-0.175781 -0.144531 -0.154123 222 135 107
-0.171875 -0.144531 -0.156248 219 135 105
-0.167969 -0.144531 -0.158333 215 138 104
-0.164062 -0.144531 -0.160226 208 129 100
-0.160156 -0.144531 -0.161427 192 115 92
-0.156250 -0.144531 -0.163069 181 99 87
-0.152344 -0.144531 -0.164064 136 55 65
-0.148438 -0.144531 -0.165006 82 34 49
-0.144531 -0.144531 -0.165838 73 38 51
-0.140625 -0.144531 -0.166406 77 35 51
-0.136719 -0.144531 -0.166706 83 31 50
-0.132812 -0.144531 -0.166824 86 26 48
-0.128906 -0.144531 -0.166797 76 33 53
-0.125000 -0.144531 -0.166679 76 33 53
-0.121094 -0.144531 -0.166422 76 32 52
-0.117188 -0.144531 -0.165804 76 30 51
-0.113281 -0.144531 -0.165360 76 30 51
-0.109375 -0.144531 -0.164749 77 28 50
-0.105469 -0.144531 -0.164162 76 27 49
-0.101562 -0.144531 -0.163659 77 27 49
-0.097656 -0.144531 -0.163167 75 26 48
-0.093750 -0.144531 -0.162541 75 26 48
-0.089844 -0.144531 -0.162072 73 27 48
-0.085938 -0.144531 -0.161618 72 28 48
-0.082031 -0.144531 -0.161039 72 28 48
-0.078125 -0.144531 -0.160611 71 28 48
-0.074219 -0.144531 -0.160252 69 29 48
-0.070312 -0.144531 -0.159831 69 29 48
-0.066406 -0.144531 -0.159622 76 34 48
-0.062500 -0.144531 -0.159324 72 30 44
-0.058594 -0.144531 -0.159069 65 26 39
-0.054688 -0.144531 -0.158674 81 44 56
-0.050781 -0.144531 -0.158322 72 38 49
-0.046875 -0.144531 -0.157967 61 28 39
-0.042969 -0.144531 -0.157642 72 40 50
-0.039062 -0.144531 -0.157076 65 30 39
-0.035156 -0.144531 -0.156587 62 22 33
-0.031250 -0.144531 -0.155869 108 68 81
-0.027344 -0.144531 -0.155309 101 51 65
-0.023438 -0.144531 -0.154977 94 48 56
-0.019531 -0.144531 -0.154242 78 35 44
-0.015625 -0.144531 -0.153525 94 38 50
-0.011719 -0.144531 -0.152909 163 76 94
-0.007812 -0.144531 -0.152256 207 123 136
-0.003906 -0.144531 -0.151544 217 148 154
0.000000 -0.144531 -0.150842 224 174 177
0.003906 -0.144531 -0.150109 226 189 190
0.007812 -0.144531 -0.149047 222 191 188
0.011719 -0.144531 -0.148254 222 197 190
0.015625 -0.144531 -0.147177 220 201 190
0.019531 -0.144531 -0.145741 216 199 186
0.023438 -0.144531 -0.144597 216 198 182
0.027344 -0.144531 -0.143094 215 190 174
0.031250 -0.144531 -0.141519 214 180 161
0.035156 -0.144531 -0.139925 212 175 150
0.039062 -0.144531 -0.137983 209 169 141
0.042969 -0.144531 -0.136444 216 167 144
0.046875 -0.144531 -0.135069 228 173 156
0.050781 -0.144531 -0.133858 234 180 162
0.054688 -0.144531 -0.132661 237 186 165
0.058594 -0.144531 -0.131563 236 189 164
0.062500 -0.144531 -0.130441 228 178 148
0.066406 -0.144531 -0.129247 223 174 134
0.070312 -0.144531 -0.128215 223 174 121
0.074219 -0.144531 -0.127375 219 168 117
0.078125 -0.144531 -0.126303 217 171 132
0.082031 -0.144531 -0.124948 207 167 137
0.085938 -0.144531 -0.121499 177 152 133
0.089844 -0.144531 -0.118671 108 109 103
0.093750 -0.144531 -0.115969 58 75 65
0.097656 -0.144531 -0.113163 74 88 78
0.101562 -0.144531 -0.110280 108 112 109
0.105469 -0.144531 -0.107466 108 109 108
0.109375 -0.144531 -0.104656 87 86 86
0.113281 -0.144531 -0.101670 69 67 67
0.117188 -0.144531 -0.098394 70 65 66
0.121094 -0.144531 -0.095226 87 80 82
0.125000 -0.144531 -0.091844 119 111 113
0.128906 -0.144531 -0.087678 151 144 145
0.132812 -0.144531 -0.082561 171 166 166
0.136719 -0.144531 -0.077572 180 177 176
0.140625 -0.144531 -0.072567 178 176 175
0.144531 -0.144531 -0.067170 177 176 174
0.148438 -0.144531 -0.061343 177 176 175
0.152344 -0.144531 -0.054342 187 183 184
0.156250 -0.144531 -0.045698 218 210 213
0.160156 -0.144531 -0.036113 237 229 233
0.164062 -0.144531 -0.018388 238 228 233
-0.285156 -0.148438 0.010270 172 149 155
-0.281250 -0.148438 -0.062180 110 78 88
-0.277344 -0.148438 -0.073526 88 45 62
-0.273438 -0.148438 -0.079471 91 42 61
-0.269531 -0.148438 -0.084843 92 41 60
-0.265625 -0.148438 -0.089209 80 34 50
-0.261719 -0.148438 -0.090513 102 66 63
-0.257812 -0.148438 -0.091739 182 129 118
-0.253906 -0.148438 -0.092933 198 138 119
-0.250000 -0.148438 -0.094205 202 138 118
-0.246094 -0.148438 -0.095748 206 141 119
-0.242188 -0.148438 -0.097721 209 141 119
-0.238281 -0.148438 -0.100229 213 144 120
-0.234375 -0.148438 -0.103309 217 149 123
-0.230469 -0.148438 -0.106906 220 151 125
-0.226562 -0.148438 -0.110848 221 152 125
-0.222656 -0.148438 -0.115032 222 152 124
-0.218750 -0.148438 -0.119377 222 150 122
-0.214844 -0.148438 -0.123236 220 147 118
-0.210938 -0.148438 -0.127260 219 145 115
-0.207031 -0.148438 -0.131061 217 141 110
-0.203125 -0.148438 -0.134664 217 138 107
-0.199219 -0.148438 -0.137948 217 137 105
-0.195312 -0.148438 -0.141046 217 136 105
-0.191406 -0.148438 -0.144182 216 134 105
-0.187500 -0.148438 -0.147087 217 136 105
-0.183594 -0.148438 -0.149857 222 142 108
-0.179688 -0.148438 -0.152555 222 138 107
-0.175781 -0.148438 -0.154740 222 136 106
-0.171875 -0.148438 -0.156802 220 137 104
-0.167969 -0.148438 -0.158738 218 140 105
-0.164062 -0.148438 -0.160583 212 133 104
-0.160156 -0.148438 -0.161769 200 125 100
-0.156250 -0.148438 -0.163377 189 118 98
-0.152344 -0.148438 -0.164689 166 88 79
-0.148438 -0.148438 -0.165698 98 39 50
-0.144531 -0.148438 -0.166469 74 37 50
-0.140625 -0.148438 -0.167195 78 36 52
-0.136719 -0.148438 -0.167502 84 32 51
-0.132812 -0.148438 -0.167608 87 27 49
-0.128906 -0.148438 -0.167567 77 34 54
-0.125000 -0.148438 -0.167572 76 33 53
-0.121094 -0.148438 -0.167456 77 33 53
-0.117188 -0.148438 -0.166820 77 31 52
-0.113281 -0.148438 -0.166325 75 29 50
-0.109375 -0.148438 -0.165592 76 27 49
-0.105469 -0.148438 -0.165030 77 27 49
-0.101562 -0.148438 -0.164472 76 26 48
-0.097656 -0.148438 -0.163942 76 26 48
-0.093750 -0.148438 -0.163339 75 26 48
-0.089844 -0.148438 -0.162684 75 26 48
-0.085938 -0.148438 -0.162150 73 27 48
-0.082031 -0.148438 -0.161617 72 28 48
-0.078125 -0.148438 -0.161108 71 28 48
-0.074219 -0.148438 -0.160630 71 28 48
-0.070312 -0.148438 -0.160370 69 29 48
-0.066406 -0.148438 -0.160145 53 14 27
-0.062500 -0.148438 -0.159835 78 41 53
-0.058594 -0.148438 -0.159545 79 41 54
-0.054688 -0.148438 -0.159065 49 14 25
-0.050781 -0.148438 -0.158753 78 45 55
-0.046875 -0.148438 -0.158330 68 33 43
-0.042969 -0.148438 -0.157968 57 18 28
-0.039062 -0.148438 -0.157441 77 36 46
-0.035156 -0.148438 -0.156875 78 36 47
-0.031250 -0.148438 -0.156099 84 40 53
-0.027344 -0.148438 -0.155683 82 41 51
-0.023438 -0.148438 -0.155078 80 40 48
-0.019531 -0.148438 -0.154469 100 37 51
-0.015625 -0.148438 -0.153830 161 63 84
-0.011719 -0.148438 -0.153414 213 123 138
-0.007812 -0.148438 -0.152785 224 152 161
-0.003906 -0.148438 -0.151939 220 164 167
0.000000 -0.148438 -0.151532 222 181 183
0.003906 -0.148438 -0.150686 223 189 189
0.007812 -0.148438 -0.149394 220 189 186
0.011719 -0.148438 -0.148280 219 193 186
0.015625 -0.148438 -0.147125 218 197 187
0.019531 -0.148438 -0.145762 219 200 187
0.023438 -0.148438 -0.144603 221 201 186
0.027344 -0.148438 -0.143084 222 196 180
0.031250 -0.148438 -0.141469 224 192 174
0.035156 -0.148438 -0.139791 223 189 168
0.039062 -0.148438 -0.138053 220 185 162
0.042969 -0.148438 -0.136308 220 181 159
0.046875 -0.148438 -0.134977 223 174 154
0.050781 -0.148438 -0.133466 226 166 149
0.054688 -0.148438 -0.132325 230 171 155
0.058594 -0.148438 -0.131071 232 174 156
0.062500 -0.148438 -0.130056 228 171 149
0.066406 -0.148438 -0.128687 225 177 142
0.070312 -0.148438 -0.127952 220 172 125
0.074219 -0.148438 -0.127183 216 172 127
0.078125 -0.148438 -0.126476 212 175 140
0.082031 -0.148438 -0.124410 196 162 135
0.085938 -0.148438 -0.121102 162 155 127
